ply
format ascii 1.0
element vertex 303
property float x
property float y
property float z
property float nx
property float ny
property float nz
property uchar diffuse_red
property uchar diffuse_green
property uchar diffuse_blue
property float quality
end_header
-0.0074082859791815281 0.016188692301511765 -0.040428575128316879 -0.11014866828918457 -0.37022477388381958 -0.92238867282867432 101 101 93 0.97520214319229126
-0.0076411697082221508 0.016112886369228363 -0.040611188858747482 -0.11695587635040283 -0.36603856086730957 -0.92322111129760742 101 101 92 0.97913914918899536
-0.0076271863654255867 0.016092365607619286 -0.040590506047010422 -0.1073538064956665 -0.3662073016166687 -0.92431998252868652 101 101 92 0.97847622632980347
-0.0074747223407030106 0.016924813389778137 -0.041113253682851791 0.28783535957336426 -0.26816070079803467 -0.91936975717544556 86 85 80 0.99140161275863647
-0.0075172856450080872 0.016927298158407211 -0.04108123853802681 0.13783282041549683 -0.19427753984928131 -0.9712148904800415 85 84 79 0.99128663539886475
-0.0072490726597607136 0.01728418655693531 -0.041105054318904877 0.30646935105323792 -0.2247590571641922 -0.9249647855758667 82 81 76 0.99147880077362061
-0.0074053523130714893 0.017672963440418243 -0.041187550872564316 0.20076490938663483 -0.13914179801940918 -0.96970772743225098 58 57 53 0.98357516527175903
-0.0071938871406018734 0.018031280487775803 -0.041183620691299438 0.26567983627319336 -0.087474361062049866 -0.96008461713790894 55 54 49 0.9800989031791687
-0.0073688291013240814 0.018399430438876152 -0.041328229010105133 0.048160836100578308 -0.36856096982955933 -0.92835521697998047 45 44 40 0.93447780609130859
-0.0071456781588494778 0.018752751871943474 -0.041354950517416 0.033508896827697754 -0.4175758957862854 -0.90802401304244995 44 43 39 0.91599792242050171
-0.0071092578582465649 0.019981378689408302 -0.042047850787639618 0.92008918523788452 0.34441176056861877 -0.1865919828414917 49 48 44 0.86128932237625122
-0.0068140504881739616 0.020827708765864372 -0.042671546339988708 0.18220953643321991 -0.51712197065353394 -0.83629220724105835 51 51 46 0.93523603677749634
-0.0064954324625432491 0.021694915369153023 -0.043316800147294998 0.30411314964294434 -0.075482591986656189 -0.94964075088500977 54 53 48 0.93868178129196167
-0.0063083674758672714 0.021743083372712135 -0.043619435280561447 0.46130892634391785 -0.54297876358032227 -0.70168948173522949 54 53 49 0.93189650774002075
-0.0064337057992815971 0.022115381434559822 -0.043620292097330093 0.54421228170394897 0.18478396534919739 -0.8183445930480957 57 56 50 0.95878225564956665
-0.0065717124380171299 0.022114070132374763 -0.043341454118490219 0.54601037502288818 -0.20545491576194763 -0.81219512224197388 57 57 51 0.96412146091461182
-0.0064094043336808681 0.022807048633694649 -0.043523892760276794 0.36781996488571167 0.29512020945549011 -0.88182342052459717 62 62 56 0.97819918394088745
-0.0064823050051927567 0.02309161052107811 -0.0433189757168293 0.057070150971412659 0.15481671690940857 -0.98629343509674072 65 64 58 0.95370066165924072
-0.0066930688917636871 0.023430677130818367 -0.043288048356771469 0.72333508729934692 -0.20281369984149933 -0.66004019975662231 67 66 60 0.94732373952865601
-0.0064736288040876389 0.024330068379640579 -0.043698307126760483 0.72568237781524658 -0.19404697418212891 -0.66009914875030518 70 69 62 0.95689475536346436
-0.0066104182042181492 0.025286039337515831 -0.043529931455850601 -0.26346376538276672 -0.51840448379516602 -0.81353777647018433 76 76 66 0.95354557037353516
-0.0070333108305931091 0.025600194931030273 -0.043163381516933441 -0.22464591264724731 -0.54577946662902832 -0.80725395679473877 80 80 69 0.93521726131439209
-0.0066725467331707478 0.026734823361039162 -0.043910127133131027 -0.0217723548412323 -0.17280775308609009 -0.98471486568450928 83 83 73 0.93155890703201294
-0.0067268679849803448 0.027344759553670883 -0.043548673391342163 0.76054441928863525 0.3475782573223114 -0.54841744899749756 84 84 74 0.94542920589447021
-0.0066863610409200191 0.028090560808777809 -0.043555643409490585 0.45202171802520752 0.86894798278808594 -0.20150861144065857 86 86 77 0.87066811323165894
-0.0070688105188310146 0.02904815785586834 -0.043016653507947922 0.30304202437400818 -0.28731128573417664 -0.90863513946533203 88 88 79 0.90096354484558105
-0.0071603246033191681 0.02950039878487587 -0.043353091925382614 0.70261061191558838 0.3529827892780304 -0.61785227060317993 89 89 80 0.89681136608123779
-0.0071465135551989079 0.030431497842073441 -0.042674936354160309 0.58945369720458984 0.11961096525192261 -0.79889774322509766 92 92 83 0.90054535865783691
-0.0073475008830428123 0.03096463531255722 -0.042450614273548126 0.62119883298873901 0.17245610058307648 -0.76444154977798462 96 96 87 0.93942821025848389
-0.0074475542642176151 0.031285576522350311 -0.042224787175655365 0.58966505527496338 0.21027848124504089 -0.77979373931884766 101 101 91 0.96101003885269165
-0.0077597028575837612 0.031291071325540543 -0.04227953776717186 0.74341529607772827 0.23785245418548584 -0.62510794401168823 99 99 88 0.94636082649230957
-0.0074781510047614574 0.032064210623502731 -0.042594920843839645 0.43742913007736206 0.31799891591072083 -0.84114950895309448 109 109 98 0.98526489734649658
-0.0077296681702136993 0.032361522316932678 -0.042487785220146179 0.38896030187606812 0.37058818340301514 -0.84343010187149048 110 110 99 0.98311752080917358
-0.0075362599454820156 0.032710645347833633 -0.042476214468479156 0.013660669326782227 0.23819950222969055 -0.97112017869949341 115 115 104 0.9773402214050293
-0.0074190017767250538 0.033067181706428528 -0.042502831667661667 0.038559094071388245 0.36338245868682861 -0.93084186315536499 119 118 107 0.9747624397277832
-0.0079232640564441681 0.033524509519338608 -0.041545823216438293 0.47637751698493958 0.37309753894805908 -0.79615491628646851 119 118 108 0.9814448356628418
-0.0081310737878084183 0.033916011452674866 -0.041775867342948914 0.64196264743804932 0.51722407341003418 -0.56600648164749146 120 120 109 0.98038548231124878
-0.0081269089132547379 0.034238353371620178 -0.041538603603839874 0.66168910264968872 0.56615757942199707 -0.49156194925308228 124 123 113 0.96890735626220703
-0.0085574528202414513 0.034741975367069244 -0.040899902582168579 -0.1969970166683197 0.60236519575119019 -0.77352988719940186 124 124 113 0.95683681964874268
-0.0085406890138983727 0.035261683166027069 -0.040876001119613647 -0.0024500191211700439 0.2222311794757843 -0.9749908447265625 128 128 116 0.96891838312149048
-0.0083494633436203003 0.035131078213453293 -0.040990903973579407 -0.22606644034385681 0.78880077600479126 -0.57156568765640259 129 129 118 0.9578169584274292
-0.0084869125857949257 0.035615693777799606 -0.040533173829317093 0.25998234748840332 0.52947664260864258 -0.80750459432601929 131 130 119 0.96059393882751465
-0.0087802661582827568 0.035778511315584183 -0.040154580026865005 0.30720040202140808 0.55252349376678467 -0.77481973171234131 132 132 120 0.96750771999359131
-0.0087429163977503777 0.036160759627819061 -0.040027439594268799 -0.02515856921672821 0.58703690767288208 -0.80916911363601685 135 134 122 0.9593389630317688
-0.009192085824906826 0.036274712532758713 -0.039496231824159622 0.32676586508750916 0.477801114320755 -0.81543254852294922 134 134 122 0.9698864221572876
-0.0090059041976928711 0.036809004843235016 -0.039586968719959259 0.19606822729110718 -0.097907602787017822 -0.97569012641906738 138 139 126 0.95328605175018311
-0.0087462188675999641 0.037348885089159012 -0.040356587618589401 -0.46424311399459839 0.52675384283065796 -0.71204543113708496 143 144 129 0.93696403503417969
-0.0093631893396377563 0.037749305367469788 -0.039112996309995651 0.44746267795562744 0.70901286602020264 -0.54504853487014771 135 136 122 0.98612380027770996
-0.0095126833766698837 0.038014877587556839 -0.038850374519824982 0.64396870136260986 0.5062638521194458 -0.57358628511428833 125 126 113 0.98912233114242554
-0.0094686318188905716 0.037992306053638458 -0.038688670843839645 0.61160540580749512 0.59259474277496338 -0.52418535947799683 126 127 114 0.987140953540802
-0.0097369840368628502 0.038293186575174332 -0.03852761909365654 0.63721662759780884 0.49948859214782715 -0.58691239356994629 112 112 100 0.9894719123840332
-0.0098144682124257088 0.038626078516244888 -0.038412310183048248 0.62214714288711548 0.55760008096694946 -0.54955899715423584 103 103 91 0.98755806684494019
-0.0098147979006171227 0.040556769818067551 -0.038141217082738876 0.56627798080444336 0.67454791069030762 -0.47361841797828674 98 98 87 0.90870970487594604
-0.010366023518145084 0.041062358766794205 -0.037415623664855957 0.45465627312660217 0.72575420141220093 -0.51630270481109619 102 102 91 0.84663289785385132
-0.01018134132027626 0.040871627628803253 -0.038153056055307388 0.71128129959106445 0.47479709982872009 -0.5183112621307373 101 101 91 0.8664315938949585
-0.011030329391360283 0.041228663176298141 -0.036323603242635727 0.48742926120758057 0.4942038357257843 -0.71984398365020752 101 101 90 0.83633929491043091
-0.010804220102727413 0.041442457586526871 -0.036101456731557846 0.44780483841896057 0.78750783205032349 -0.42344081401824951 100 100 88 0.85868668556213379
-0.011799215339124203 0.042699776589870453 -0.034739866852760315 0.70993000268936157 -0.2632250189781189 -0.6532319188117981 93 93 81 0.95791381597518921
-0.011632549576461315 0.043143507093191147 -0.034749861806631088 0.7355380654335022 -0.20358274877071381 -0.6461716890335083 85 85 73 0.95326876640319824
-0.011515097692608833 0.043584588915109634 -0.034730039536952972 0.74358224868774414 -0.1717996746301651 -0.64619678258895874 77 77 65 0.95057213306427002
-0.011589588597416878 0.044350128620862961 -0.034945186227560043 0.71015125513076782 -0.17912162840366364 -0.68088227510452271 63 63 52 0.96404635906219482
-0.011620625853538513 0.045048393309116364 -0.035082355141639709 0.69090205430984497 -0.25783145427703857 -0.67540895938873291 66 66 57 0.98619121313095093
-0.01145665068179369 0.045482974499464035 -0.035090707242488861 0.71926683187484741 -0.22638057172298431 -0.65681600570678711 66 66 58 0.98104196786880493
-0.011654642410576344 0.04576566070318222 -0.035384047776460648 0.67052936553955078 -0.23080854117870331 -0.70506584644317627 78 77 68 0.98275178670883179
-0.011644606478512287 0.045777030289173126 -0.035368289798498154 0.72302210330963135 -0.23553642630577087 -0.64943188428878784 77 77 68 0.9831433892250061
-0.011470121331512928 0.046201359480619431 -0.035418707877397537 0.70898139476776123 -0.26079735159873962 -0.65523278713226318 74 74 66 0.98282051086425781
-0.011466310359537601 0.046229206025600433 -0.035399194806814194 0.70980232954025269 -0.25829243659973145 -0.65533632040023804 74 74 66 0.98037481307983398
-0.011321531608700752 0.04660627618432045 -0.036009799689054489 0.81230491399765015 -0.31448221206665039 -0.49118393659591675 80 79 72 0.96210300922393799
-0.011407590471208096 0.04807024821639061 -0.03605155274271965 0.64492344856262207 -0.0064699798822402954 -0.76421982049942017 75 75 69 0.8853955864906311
-0.011344531551003456 0.048481456935405731 -0.036041531711816788 0.74024999141693115 0.047614336013793945 -0.67064362764358521 72 72 66 0.92020940780639648
-0.011315140873193741 0.049214441329240799 -0.03639761358499527 0.70224714279174805 -0.26673614978790283 -0.66007637977600098 68 67 61 0.96452099084854126
-0.011157567612826824 0.049647040665149689 -0.036390800029039383 0.7024085521697998 -0.27543157339096069 -0.6563228964805603 66 66 60 0.96694415807723999
-0.010851441882550716 0.050465527921915054 -0.03706900030374527 0.58746105432510376 -0.33924323320388794 -0.73471331596374512 61 60 53 0.94228804111480713
-0.010798315517604351 0.056273076683282852 -0.037929750978946686 0.8618086576461792 -0.37025773525238037 -0.34669169783592224 72 73 67 0.80885529518127441
-0.011061190627515316 0.057076293975114822 -0.03808077797293663 0.81140232086181641 -0.44798445701599121 -0.37541472911834717 74 72 64 0.8090471625328064
-0.010821407660841942 0.057412158697843552 -0.038454338908195496 0.83694422245025635 -0.41102367639541626 -0.36136391758918762 74 73 67 0.87189334630966187
-0.010831728577613831 0.057698056101799011 -0.03795994445681572 0.024080067873001099 -0.38515603542327881 -0.92253720760345459 73 74 72 0.97228670120239258
-0.010996360331773758 0.057714220136404037 -0.038208417594432831 0.7472083568572998 -0.52546370029449463 -0.40689992904663086 75 72 67 0.9190593957901001
-0.011063270270824432 0.057769570499658585 -0.038208294659852982 0.75959455966949463 -0.057838425040245056 -0.64782017469406128 76 73 68 0.85899084806442261
-0.010961763560771942 0.058124002069234848 -0.038232438266277313 -0.019358009099960327 -0.39842379093170166 -0.91699701547622681 73 72 74 0.95817267894744873
-0.010915284976363182 0.058028016239404678 -0.038072038441896439 -0.0024107992649078369 -0.40380921959877014 -0.9148399829864502 72 73 74 0.96963375806808472
-0.010787979699671268 0.058354441076517105 -0.038167852908372879 0.86058753728866577 0.054467290639877319 -0.50638175010681152 78 83 84 0.96528780460357666
-0.010928358882665634 0.058597046881914139 -0.038589466363191605 0.60635143518447876 -0.27334067225456238 -0.74674147367477417 75 77 77 0.94080030918121338
-0.010920464992523193 0.05896296352148056 -0.038217999041080475 0.67033267021179199 -0.026902690529823303 -0.7415727972984314 91 96 96 0.97643738985061646
-0.010922789573669434 0.058975730091333389 -0.038225669413805008 0.68898802995681763 -0.016043692827224731 -0.72459512948989868 91 96 96 0.97629630565643311
-0.011128304526209831 0.059515606611967087 -0.038204248994588852 0.90542793273925781 0.1900627613067627 -0.37957412004470825 99 104 102 0.98390042781829834
-0.011150130070745945 0.059375159442424774 -0.038000263273715973 0.92740130424499512 0.28260058164596558 -0.24507918953895569 101 107 106 0.98492318391799927
-0.011253689415752888 0.05978769063949585 -0.0375797338783741 0.94015860557556152 0.23808455467224121 -0.2437572181224823 130 138 136 0.98273342847824097
-0.011483775451779366 0.060342263430356979 -0.037504468113183975 0.95104342699050903 0.22471018135547638 -0.21218311786651611 134 142 141 0.98234891891479492
-0.011483529582619667 0.060345616191625595 -0.037544772028923035 0.95130598545074463 0.21853168308734894 -0.21739557385444641 133 140 139 0.98243725299835205
-0.011675186455249786 0.060609143227338791 -0.036771900951862335 0.86821830272674561 0.16909429430961609 -0.46648070216178894 170 180 174 0.84407997131347656
-0.012097856961190701 0.062717586755752563 -0.035910390317440033 0.91920530796051025 0.33652782440185547 -0.20447665452957153 140 135 117 0.88621413707733154
-0.012267285026609898 0.063292257487773895 -0.036015618592500687 0.9121062159538269 0.32803982496261597 -0.2458702027797699 158 154 122 0.90942996740341187
-0.012409735471010208 0.063601009547710419 -0.035416971892118454 0.75962752103805542 0.61822390556335449 -0.20190438628196716 152 139 110 0.91284513473510742
-0.0023613835219293833 -0.018264610320329666 -0.04853343591094017 0.064646445214748383 0.63986998796463013 -0.76575928926467896 11 6 0 0.97964519262313843
-0.0027852032799273729 -0.017760733142495155 -0.048161398619413376 0.57870012521743774 0.48293408751487732 -0.65717637538909912 48 41 30 0.99646568298339844
-0.0026510106399655342 -0.01734464056789875 -0.048139870166778564 0.49331656098365784 0.10662320256233215 -0.86329036951065063 74 68 56 0.99222791194915771
-0.0026042875833809376 -0.017024891451001167 -0.048499919474124908 0.23273947834968567 -0.072640493512153625 -0.96982258558273315 76 73 60 0.98390656709671021
-0.0023781550116837025 -0.01666603609919548 -0.048554647713899612 0.78593957424163818 0.22159150242805481 -0.57723152637481689 81 79 69 0.95236515998840332
-0.0024758202489465475 -0.016165981069207191 -0.048745449632406235 0.85280972719192505 0.11280293762683868 -0.50989317893981934 78 76 69 0.88877648115158081
-0.0026370745617896318 -0.01578466035425663 -0.048625130206346512 0.71417027711868286 0.39073839783668518 -0.58076179027557373 75 72 67 0.88369196653366089
-0.0025913333520293236 -0.015462007373571396 -0.048375930637121201 0.5380561351776123 0.50727361440658569 -0.67317843437194824 77 75 71 0.87143087387084961
-0.0029911871533840895 -0.012193791568279266 -0.048205230385065079 0.6973453164100647 0.53364807367324829 -0.47846552729606628 84 80 69 0.95167768001556396
-0.0029233128298074007 -0.011882069520652294 -0.047990240156650543 0.66573226451873779 0.41890624165534973 -0.61750954389572144 88 83 72 0.95383518934249878
-0.0031462758779525757 -0.011551670730113983 -0.048017505556344986 0.49909842014312744 0.19939610362052917 -0.84329235553741455 94 88 76 0.98340576887130737
-0.0030287273693829775 -0.011249618604779243 -0.047826729714870453 0.58266347646713257 0.5031886100769043 -0.63820415735244751 102 95 82 0.99040311574935913
-0.0032424305099993944 -0.010859605856239796 -0.047617442905902863 0.67272251844406128 0.49756628274917603 -0.54760587215423584 117 111 96 0.9929649829864502
-0.0032256520353257656 -0.010603673756122589 -0.047329775989055634 0.64442873001098633 0.62018442153930664 -0.44730633497238159 130 125 109 0.99212276935577393
-0.0035542338155210018 -0.010317642241716385 -0.047291379421949387 0.29526028037071228 0.73639380931854248 -0.60872447490692139 141 136 121 0.98909258842468262
-0.0033502918668091297 -0.0098788859322667122 -0.047401394695043564 0.78861558437347412 0.13825741410255432 -0.59914147853851318 148 142 130 0.97803199291229248
-0.0035599051043391228 -0.0099371578544378281 -0.047020386904478073 0.78622806072235107 0.22944828867912292 -0.57375860214233398 150 144 132 0.96883231401443481
-0.003419345710426569 -0.009669753722846508 -0.046958889812231064 0.18892738223075867 0.14512541890144348 -0.97120809555053711 152 148 134 0.95654940605163574
-0.0046987398527562618 -0.0092042107135057449 -0.044978111982345581 0.18173599243164062 0.93862587213516235 -0.2931782603263855 156 152 140 0.81374001502990723
-0.0053630745969712734 -0.0085121896117925644 -0.043317470699548721 0.67604362964630127 0.57392656803131104 -0.46214002370834351 156 151 141 0.81240439414978027
-0.0054772738367319107 -0.0082827787846326828 -0.042774029076099396 0.10414548963308334 0.8418203592300415 -0.52961540222167969 156 151 142 0.71762961149215698
-0.0067085432820022106 -0.0085635893046855927 -0.040366452187299728 -0.13404165208339691 0.82707810401916504 -0.54587054252624512 160 158 150 0.86131584644317627
-0.0065048877149820328 -0.0080494405701756477 -0.040570791810750961 -0.22857518494129181 0.61888420581817627 -0.75148898363113403 156 154 147 0.9826163649559021
-0.0069169099442660809 -0.0076134232804179192 -0.039930261671543121 -0.31047904491424561 0.61973947286605835 -0.72078132629394531 122 120 112 0.98429489135742188
-0.0069141457788646221 -0.0072276121936738491 -0.039573818445205688 -0.21648102998733521 0.6811220645904541 -0.69943469762802124 121 120 109 0.92159575223922729
-0.0073160845786333084 -0.0068055340088903904 -0.039273764938116074 -0.56336671113967896 0.41997203230857849 -0.71150660514831543 123 121 109 0.90663790702819824
-0.0080145746469497681 -0.0055769411846995354 -0.038036011159420013 0.12637743353843689 0.9064410924911499 -0.40298062562942505 122 119 109 0.67303335666656494
-0.0087654571980237961 -0.003730683820322156 -0.03673321008682251 -0.23532627522945404 0.45511454343795776 -0.85877376794815063 122 119 108 0.76901942491531372
-0.0095870411023497581 -0.0035026550758630037 -0.034798339009284973 -0.25114366412162781 0.43203836679458618 -0.86618107557296753 126 122 110 0.78122520446777344
-0.0096349269151687622 -0.0020743859931826591 -0.034447997808456421 0.041308701038360596 0.32799562811851501 -0.94377559423446655 128 125 111 0.93301486968994141
-0.009990176185965538 -0.0021653790026903152 -0.034111011773347855 -0.14750197529792786 0.58453810214996338 -0.79784619808197021 129 125 112 0.8858528733253479
-0.0098032336682081223 -0.0016034692525863647 -0.034154798835515976 -0.17953088879585266 0.7428056001663208 -0.64498716592788696 126 123 110 0.97674393653869629
-0.010212857276201248 0.00045878766104578972 -0.034110937267541885 -0.5874028205871582 0.37802088260650635 -0.71558254957199097 102 100 87 0.76478797197341919
-0.0086530512198805809 0.0042022615671157837 -0.037138741463422775 -0.036909252405166626 -0.13703541457653046 -0.98987829685211182 98 96 84 0.78183376789093018
-0.0091451462358236313 0.0041558691300451756 -0.036951057612895966 0.097528666257858276 -0.25252103805541992 -0.96266359090805054 101 99 86 0.76712918281555176
-0.0088571216911077499 0.0046006962656974792 -0.037250429391860962 0.10109183192253113 -0.092128008604049683 -0.99060225486755371 97 95 83 0.91318207979202271
-0.0086372131481766701 0.0049725859425961971 -0.037277434021234512 0.22203606367111206 0.23068273067474365 -0.94735705852508545 93 92 81 0.94965088367462158
-0.008845306932926178 0.0053277211263775826 -0.037261612713336945 0.46398663520812988 -0.23953214287757874 -0.85284274816513062 91 89 78 0.96359449625015259
-0.0085074156522750854 0.0058929994702339172 -0.038473285734653473 0.4561913013458252 -0.53394937515258789 -0.71189022064208984 89 87 77 0.95947182178497314
-0.0079278228804469109 0.0067076552659273148 -0.039169244468212128 -0.24779519438743591 -0.016972288489341736 -0.96866375207901001 87 86 75 0.85338985919952393
-0.007758354302495718 0.0076080192811787128 -0.039711922407150269 -0.019491299986839294 -0.55555713176727295 -0.83124983310699463 90 88 78 0.93054932355880737
-0.0074890186078846455 0.010275937616825104 -0.04100365936756134 -0.35339909791946411 -0.41195571422576904 -0.83988195657730103 91 91 79 0.8154369592666626
-0.0075353551656007767 0.0108377980068326 -0.040426015853881836 0.75234276056289673 0.39435762166976929 -0.5276954174041748 92 92 80 0.89797478914260864
-0.0076203946955502033 0.010540315881371498 -0.040736500173807144 0.4415661096572876 -0.0062529891729354858 -0.89720696210861206 92 91 81 0.87958335876464844
-0.007627539336681366 0.011289947666227818 -0.040679965168237686 0.71999931335449219 0.38807693123817444 -0.57532370090484619 94 93 83 0.93539196252822876
-0.0075506241992115974 0.011674880050122738 -0.040611490607261658 0.40203568339347839 0.53391218185424805 -0.74384486675262451 94 94 82 0.95492929220199585
-0.007758178748190403 0.012003016658127308 -0.040878847241401672 0.58408325910568237 0.42729321122169495 -0.69012117385864258 97 97 85 0.95122420787811279
-0.0074534495361149311 0.012381988577544689 -0.040943175554275513 0.56955921649932861 -0.15697312355041504 -0.80682206153869629 99 99 87 0.95117270946502686
-0.0075930911116302013 0.01263787318021059 -0.040598377585411072 0.36280611157417297 -0.14943788945674896 -0.91980445384979248 101 100 91 0.91866672039031982
-0.0073288623243570328 0.013326824642717838 -0.041638202965259552 0.044524788856506348 -0.23226164281368256 -0.97163373231887817 100 100 89 0.90864485502243042
-0.0074197794310748577 0.013269760645925999 -0.041417296975851059 -0.29462671279907227 -0.054937824606895447 -0.95403194427490234 101 101 89 0.93407934904098511
-0.0074197794310748577 0.013269760645925999 -0.041417296975851059 -0.29462671279907227 -0.054937824606895447 -0.95403194427490234 101 101 89 0.93407934904098511
-0.0073208101093769073 0.013568765483796597 -0.041216976940631866 -0.10036468505859375 -0.20965856313705444 -0.9726099967956543 101 101 90 0.92738544940948486
-0.0077959243208169937 0.015362352132797241 -0.040673650801181793 -0.038535207509994507 -0.31333076953887939 -0.94886183738708496 105 104 96 0.8674662709236145
-0.0077655874192714691 0.015682302415370941 -0.040630459785461426 0.14169862866401672 -0.25306993722915649 -0.95701456069946289 104 103 95 0.94744753837585449
-0.0077416491694748402 0.016533255577087402 -0.04099569097161293 0.20712032914161682 -0.19925539195537567 -0.95780926942825317 90 89 84 0.98980236053466797
-0.0077545647509396076 0.016545090824365616 -0.041009288281202316 0.26301249861717224 -0.23088622093200684 -0.93675827980041504 89 88 84 0.98981070518493652
-0.007929299958050251 0.016897367313504219 -0.041136637330055237 0.2174822986125946 -0.19103896617889404 -0.95718628168106079 70 69 64 0.98988121747970581
-0.0076237502507865429 0.01730942539870739 -0.041176900267601013 0.17792171239852905 -0.17165760695934296 -0.96895694732666016 65 64 59 0.98800599575042725
-0.0078559787943959236 0.017641099169850349 -0.041145972907543182 0.063208907842636108 -0.18871748447418213 -0.97999507188796997 49 48 44 0.97102248668670654
-0.0075890333391726017 0.018030710518360138 -0.041290499269962311 -0.038084179162979126 -0.20942707359790802 -0.97708237171173096 46 45 41 0.96049237251281738
-0.0070106838829815388 0.019459489732980728 -0.042825233191251755 0.55563700199127197 -0.49416512250900269 -0.66863167285919189 49 48 43 0.77133303880691528
-0.0070981471799314022 0.019858876243233681 -0.043019238859415054 0.76039952039718628 -0.48147156834602356 -0.43586447834968567 49 48 44 0.85590612888336182
-0.0071321935392916203 0.020910987630486488 -0.04315059632062912 0.60787767171859741 -0.14744780957698822 -0.7802203893661499 52 51 46 0.92382854223251343
-0.0071393083781003952 0.020671075209975243 -0.043102502822875977 0.56931078433990479 0.27365243434906006 -0.77524161338806152 51 50 45 0.87724781036376953
-0.0068919775076210499 0.021277183666825294 -0.043177623301744461 0.30790144205093384 -0.26555609703063965 -0.91360640525817871 55 54 49 0.93357944488525391
-0.0067926766350865364 0.022200489416718483 -0.043787084519863129 0.67256247997283936 0.53983539342880249 -0.50619900226593018 59 58 52 0.97501248121261597
-0.0068696197122335434 0.022540263831615448 -0.044093038886785507 0.40992966294288635 0.67522507905960083 -0.61321192979812622 63 62 56 0.97590082883834839
-0.0068112649023532867 0.022790756076574326 -0.043630830943584442 0.41813826560974121 0.14918364584445953 -0.89604943990707397 65 64 58 0.97033548355102539
-0.0070340875536203384 0.023183779790997505 -0.043797507882118225 0.68426805734634399 0.61345827579498291 -0.39426678419113159 68 68 62 0.94742804765701294
-0.0068973423913121223 0.023540366441011429 -0.043752111494541168 0.56831014156341553 0.62126845121383667 -0.53948956727981567 69 69 61 0.93361908197402954
-0.0068254075013101101 0.023923376575112343 -0.044052429497241974 0.6138073205947876 0.63936322927474976 -0.46309328079223633 70 69 62 0.93044847249984741
-0.0069553614594042301 0.024286055937409401 -0.044007390737533569 0.57192528247833252 0.16780970990657806 -0.80295789241790771 72 72 64 0.94361120462417603
-0.0068005854263901711 0.024332817643880844 -0.044097747653722763 0.53465545177459717 0.56835925579071045 -0.6253889799118042 72 71 64 0.92356884479522705
-0.0073645003139972687 0.026008926331996918 -0.043217167258262634 0.070283606648445129 -0.31074970960617065 -0.94788980484008789 81 81 72 0.86346554756164551
-0.0068225720897316933 0.026763346046209335 -0.044131692498922348 0.79056429862976074 0.13948175311088562 -0.59628260135650635 84 84 74 0.94164896011352539
-0.0068534114398062229 0.027122139930725098 -0.043810009956359863 0.79072344303131104 0.14298486709594727 -0.59524095058441162 84 84 74 0.94953382015228271
-0.0068704276345670223 0.027436880394816399 -0.044455002993345261 0.71316725015640259 0.47733050584793091 -0.51336938142776489 85 85 75 0.82491534948348999
-0.0070707406848669052 0.02755001001060009 -0.043464671820402145 0.57269299030303955 0.65794622898101807 -0.48900872468948364 85 85 75 0.88107842206954956
-0.0073010879568755627 0.028001483529806137 -0.043750382959842682 0.74996089935302734 0.38454806804656982 -0.53822064399719238 88 87 77 0.87043875455856323
-0.0074155107140541077 0.028211044147610664 -0.043544460088014603 0.70816969871520996 0.47551742196083069 -0.52189928293228149 89 88 80 0.86490821838378906
-0.0072951097972691059 0.029189659282565117 -0.04353896901011467 0.56917428970336914 0.30603182315826416 -0.76314163208007812 90 90 81 0.89054548740386963
-0.0073207146488130093 0.029885731637477875 -0.043402634561061859 0.69249331951141357 0.32342085242271423 -0.64486587047576904 91 91 82 0.89732342958450317
-0.0074335495010018349 0.030277559533715248 -0.04331936314702034 0.76701945066452026 0.23299022018909454 -0.59782660007476807 93 93 84 0.89756155014038086
-0.0075119440443813801 0.030617419630289078 -0.042985036969184875 0.74240952730178833 0.25328633189201355 -0.62022101879119873 94 94 85 0.84731793403625488
-0.0076872273348271847 0.031695075333118439 -0.042557515203952789 0.52414512634277344 0.29827398061752319 -0.79768699407577515 102 102 91 0.96913754940032959
-0.0078394049778580666 0.032059140503406525 -0.042736183851957321 0.33632206916809082 0.21346709132194519 -0.91723453998565674 105 104 94 0.98799103498458862
-0.0079069426283240318 0.032709885388612747 -0.042595744132995605 0.28848966956138611 0.40454968810081482 -0.8678210973739624 111 110 99 0.98519247770309448
-0.0081063359975814819 0.0329720638692379 -0.042280793190002441 0.2408784031867981 0.43496114015579224 -0.86763274669647217 112 111 101 0.98472422361373901
-0.0077725443989038467 0.033041529357433319 -0.042516700923442841 0.31329792737960815 0.46186032891273499 -0.82977688312530518 115 114 103 0.98631578683853149
-0.0083183879032731056 0.033277709037065506 -0.042195066809654236 0.30575892329216003 0.33198535442352295 -0.89235484600067139 111 110 100 0.97862303256988525
-0.0081413350999355316 0.033626802265644073 -0.042155049741268158 0.50592297315597534 0.31287062168121338 -0.80383700132369995 115 115 104 0.98909282684326172
-0.0080579891800880432 0.033718090504407883 -0.042258728295564651 0.29668059945106506 0.17187191545963287 -0.93938314914703369 117 116 106 0.98851555585861206
-0.0083946790546178818 0.03418288379907608 -0.041534315794706345 0.58840674161911011 0.55274116992950439 -0.59013128280639648 120 119 109 0.970683753490448
-0.008204244077205658 0.034062903374433517 -0.042323093861341476 0.45557910203933716 0.39420202374458313 -0.79815560579299927 119 118 108 0.98258793354034424
-0.0083967717364430428 0.034514624625444412 -0.041343364864587784 0.64858525991439819 0.5869438648223877 -0.48459678888320923 123 122 112 0.9612157940864563
-0.0088763013482093811 0.035212650895118713 -0.041138425469398499 0.071605890989303589 0.27150300145149231 -0.9597700834274292 122 121 110 0.97004085779190063
-0.0087707238271832466 0.035119529813528061 -0.040851209312677383 -0.18729415535926819 0.011077985167503357 -0.98224127292633057 124 124 113 0.96374595165252686
-0.0088451514020562172 0.035537973046302795 -0.040876079350709915 0.43376591801643372 0.61019039154052734 -0.66295921802520752 125 125 113 0.97313660383224487
-0.0093391519039869308 0.03673238679766655 -0.039698339998722076 0.45682224631309509 0.38385689258575439 -0.80247581005096436 133 133 121 0.95559000968933105
-0.0095674525946378708 0.036539383232593536 -0.039673037827014923 0.31359714269638062 0.4759209156036377 -0.82167887687683105 129 129 117 0.94984108209609985
-0.0094373524188995361 0.037164736539125443 -0.039819076657295227 0.62446713447570801 0.61827486753463745 -0.47725978493690491 137 138 124 0.96673929691314697
-0.0095104798674583435 0.037534113973379135 -0.039778430014848709 0.62132811546325684 0.62304872274398804 -0.47514382004737854 135 136 122 0.98723739385604858
-0.0097571816295385361 0.038045767694711685 -0.039081666618585587 0.41470998525619507 0.74936068058013916 -0.51621162891387939 119 120 107 0.98981058597564697
-0.0098344730213284492 0.038037382066249847 -0.03913005068898201 0.43245688080787659 0.72200673818588257 -0.54008090496063232 118 119 106 0.98922204971313477
-0.0098384134471416473 0.038327228277921677 -0.038779962807893753 0.58654278516769409 0.54876589775085449 -0.59567081928253174 109 110 97 0.9884108304977417
-0.0097827129065990448 0.038306158035993576 -0.038755457848310471 0.48249542713165283 0.64511537551879883 -0.59247314929962158 111 111 99 0.98759770393371582
-0.010139155201613903 0.038595106452703476 -0.038546916097402573 0.61808097362518311 0.62609362602233887 -0.47537654638290405 100 100 88 0.97598505020141602
-0.010167179629206657 0.038905233144760132 -0.038196351379156113 0.61862903833389282 0.6260077953338623 -0.47477611899375916 98 98 87 0.93338173627853394
-0.010202911682426929 0.040186099708080292 -0.038596335798501968 0.48514938354492188 0.54438543319702148 -0.68430590629577637 99 98 88 0.76696795225143433
-0.010133079253137112 0.040558122098445892 -0.038501866161823273 0.58178442716598511 0.66856420040130615 -0.46319416165351868 99 99 88 0.85619175434112549
-0.010427294299006462 0.041250903159379959 -0.038165099918842316 0.71181976795196533 0.47532135248184204 -0.51709014177322388 102 102 92 0.75551241636276245
-0.011255159042775631 0.041804831475019455 -0.03624705970287323 0.55455517768859863 0.69664895534515381 -0.45513597130775452 102 102 92 0.87769132852554321
-0.012133250944316387 0.042566675692796707 -0.03503480926156044 0.71236610412597656 -0.25889843702316284 -0.65230834484100342 99 99 88 0.96576911211013794
-0.011934155598282814 0.043844990432262421 -0.035134993493556976 0.60159492492675781 0.02970808744430542 -0.79824870824813843 80 80 69 0.98431527614593506
-0.012086034752428532 0.044394850730895996 -0.03528175875544548 0.64281344413757324 -0.28309339284896851 -0.71179288625717163 80 80 70 0.98785245418548584
-0.011948434635996819 0.044247820973396301 -0.035153631120920181 0.57312166690826416 -0.21540156006813049 -0.79065406322479248 75 75 64 0.99053013324737549
-0.01209547184407711 0.044399324804544449 -0.035218685865402222 0.69812107086181641 -0.3186800479888916 -0.64114737510681152 80 80 70 0.98773056268692017
-0.01180984266102314 0.044642847031354904 -0.035107634961605072 0.61479032039642334 -0.29427307844161987 -0.73173511028289795 70 70 60 0.98832517862319946
-0.011898370459675789 0.044815942645072937 -0.035292737185955048 0.67951285839080811 -0.31907999515533447 -0.6606438159942627 76 76 66 0.98912298679351807
-0.012089760042726994 0.045118138194084167 -0.035449787974357605 0.67900943756103516 -0.2789502739906311 -0.67906773090362549 86 86 77 0.96213191747665405
-0.011812429875135422 0.045345906168222427 -0.035310901701450348 0.56976318359375 -0.1920328289270401 -0.79905784130096436 78 78 68 0.98575472831726074
-0.011537594720721245 0.04835490882396698 -0.036384787410497665 0.65501242876052856 -0.11726608872413635 -0.74646329879760742 72 71 65 0.95085418224334717
-0.011451066471636295 0.048772871494293213 -0.036395881325006485 0.72956317663192749 -0.22167292237281799 -0.64699208736419678 68 67 61 0.9603455662727356
-0.011655788868665695 0.049061302095651627 -0.036678146570920944 0.44560304284095764 -0.16630831360816956 -0.87964737415313721 60 60 54 0.92516219615936279
-0.011446394957602024 0.04953630268573761 -0.036731362342834473 0.4143221378326416 -0.21147575974464417 -0.88522034883499146 62 62 56 0.94117552042007446
-0.011622405610978603 0.049887388944625854 -0.036874197423458099 0.26907187700271606 -0.21400484442710876 -0.93904316425323486 58 58 52 0.88858962059020996
-0.011585569009184837 0.051050357520580292 -0.03708847239613533 0.6069527268409729 -0.18041896820068359 -0.77398788928985596 59 59 53 0.85495829582214355
-0.01128330547362566 0.052604075521230698 -0.037317827343940735 0.25256878137588501 -0.0076331794261932373 -0.96754884719848633 60 60 55 0.80130964517593384
-0.011384561657905579 0.055975940078496933 -0.038201000541448593 0.73827624320983887 -0.53325653076171875 -0.41302007436752319 68 67 62 0.7457205057144165
-0.011378900147974491 0.056504696607589722 -0.038078535348176956 0.12358450889587402 -0.3434414267539978 -0.93100738525390625 70 71 63 0.72214686870574951
-0.011529050767421722 0.058108661323785782 -0.038171004503965378 -0.22377017140388489 0.23992294073104858 -0.94465005397796631 76 77 70 0.74501907825469971
-0.010939208790659904 0.058604996651411057 -0.03914414718747139 0.80116897821426392 -0.46317636966705322 -0.37894058227539062 75 76 72 0.7877848744392395
-0.011121093295514584 0.058907069265842438 -0.038820479065179825 0.78856277465820312 -0.40965858101844788 -0.45863771438598633 76 78 71 0.90873992443084717
-0.011358293704688549 0.059128019958734512 -0.038290631026029587 0.79495233297348022 0.10109880566596985 -0.59818881750106812 79 80 73 0.94943481683731079
-0.011237150058150291 0.060127019882202148 -0.038289505988359451 0.93779784440994263 0.2330687940120697 -0.25732129812240601 109 115 113 0.98568171262741089
-0.011335953138768673 0.060405455529689789 -0.038866575807332993 0.6561015248298645 0.073600798845291138 -0.75107496976852417 89 89 89 0.9775509238243103
-0.011362794786691666 0.060698546469211578 -0.038301073014736176 0.93872594833374023 0.22898434102535248 -0.2576039731502533 120 122 124 0.98200517892837524
-0.011678497307002544 0.060932472348213196 -0.037457868456840515 0.96315902471542358 0.15404386818408966 -0.22044330835342407 147 154 154 0.95971822738647461
-0.012040973640978336 0.061505019664764404 -0.037498056888580322 0.93755453824996948 0.27962714433670044 -0.20688235759735107 135 142 144 0.95008641481399536
-0.012713026255369186 0.063763037323951721 -0.035953640937805176 0.73123162984848022 0.64949601888656616 -0.20845934748649597 202 194 157 0.86850070953369141
-0.012834369204938412 0.064084209501743317 -0.03542720153927803 0.73950052261352539 0.64217305183410645 -0.20187327265739441 155 140 107 0.92099541425704956
-0.012910623103380203 0.064770527184009552 -0.03520718589425087 0.68584543466567993 -0.3981378972530365 -0.60918164253234863 30 15 4 0.91034644842147827
-0.012868274934589863 0.065211139619350433 -0.035862397402524948 0.58212697505950928 -0.50566995143890381 -0.63673090934753418 25 10 1 0.95359170436859131
-0.012801577337086201 0.065722323954105377 -0.035859260708093643 0.72227442264556885 -0.54844212532043457 -0.42134428024291992 11 2 1 0.96820688247680664
-0.012448840774595737 0.066346123814582825 -0.036665152758359909 0.73132073879241943 -0.54250806570053101 -0.41334611177444458 5 3 0 0.79611939191818237
-0.002763071795925498 -0.018435800448060036 -0.048632111400365829 0.65954673290252686 0.60936236381530762 -0.44008588790893555 12 7 0 0.97862869501113892
-0.0028687245212495327 -0.018045490607619286 -0.048425581306219101 0.66888076066970825 0.47153323888778687 -0.57467830181121826 23 17 7 0.99649977684020996
-0.0028512005228549242 -0.017634939402341843 -0.048540700227022171 0.59563040733337402 0.43438160419464111 -0.67567527294158936 52 45 33 0.99630916118621826
-0.0028007866349071264 -0.016931658610701561 -0.048784717917442322 0.41949677467346191 0.2614937424659729 -0.8692774772644043 76 73 60 0.98259186744689941
-0.0027341381646692753 -0.016174089163541794 -0.049002677202224731 0.96506553888320923 0.11450065672397614 -0.23566538095474243 77 75 67 0.81535077095031738
-0.0029195339884608984 -0.015766877681016922 -0.048951104283332825 0.71327304840087891 0.51145690679550171 -0.47922182083129883 77 75 69 0.73289132118225098
-0.0029008672572672367 -0.015475341118872166 -0.048639729619026184 0.55977809429168701 0.49691534042358398 -0.66311651468276978 76 74 70 0.83788013458251953
-0.0031262221746146679 -0.013241252861917019 -0.04826059564948082 0.55961030721664429 0.72435092926025391 -0.40268117189407349 80 79 72 0.76228773593902588
-0.0032753576524555683 -0.012860894203186035 -0.048291031271219254 0.52566432952880859 0.20457509160041809 -0.82572758197784424 80 77 69 0.78902411460876465
-0.003216056153178215 -0.011860676109790802 -0.048236984759569168 0.37262922525405884 0.30251887440681458 -0.87728536128997803 90 85 74 0.96905875205993652
-0.0034465244971215725 -0.011533547192811966 -0.048257578164339066 0.32818549871444702 0.41902098059654236 -0.84659057855606079 98 92 80 0.98084020614624023
-0.0033205989748239517 -0.01121793407946825 -0.048013165593147278 0.29695850610733032 0.32339745759963989 -0.89845973253250122 103 96 83 0.99129903316497803
-0.003560938872396946 -0.010933943092823029 -0.047840271145105362 0.46904116868972778 0.52445948123931885 -0.71059316396713257 114 107 92 0.99328279495239258
-0.0035609803162515163 -0.010609002783894539 -0.047601103782653809 0.49023523926734924 0.6634448766708374 -0.56525242328643799 127 122 106 0.99436008930206299
-0.0038525608833879232 -0.010331341996788979 -0.047668080776929855 0.48218458890914917 0.53499382734298706 -0.69374316930770874 139 134 118 0.99043798446655273
-0.0037718014791607857 -0.010389057919383049 -0.047748051583766937 0.47427424788475037 0.17362236976623535 -0.86308693885803223 136 131 115 0.99035274982452393
-0.0039001100230962038 -0.010061133652925491 -0.047253195196390152 0.18323543667793274 0.79292303323745728 -0.58111774921417236 146 141 128 0.9741252064704895
-0.0039708963595330715 -0.0097160795703530312 -0.047403901815414429 0.33543580770492554 0.45529824495315552 -0.8247341513633728 151 147 133 0.94612866640090942
-0.0051479041576385498 -0.0090709151700139046 -0.044922981411218643 0.4879087507724762 0.83231174945831299 -0.26306286454200745 157 151 141 0.79647040367126465
-0.0051611089147627354 -0.0089032500982284546 -0.044332623481750488 0.5106351375579834 0.6753077507019043 -0.53217583894729614 160 155 145 0.75789475440979004
-0.0053771268576383591 -0.0088195176795125008 -0.043654415756464005 0.95384985208511353 0.04078221321105957 -0.29750168323516846 159 154 144 0.8351970911026001
-0.0057123745791614056 -0.0082917790859937668 -0.043211042881011963 0.34177535772323608 0.92400360107421875 -0.17148479819297791 158 154 144 0.83537161350250244
-0.0073267924599349499 -0.0072158356197178364 -0.04021521657705307 0.26643076539039612 0.44287168979644775 -0.85608375072479248 114 112 102 0.96568876504898071
-0.007856905460357666 -0.0068378429859876633 -0.039252344518899918 -0.079495362937450409 0.430428147315979 -0.89911741018295288 120 118 107 0.86706435680389404
-0.0075548654422163963 -0.0064295139163732529 -0.03939279168844223 0.18772237002849579 0.29375329613685608 -0.937267005443573 122 119 110 0.76510310173034668
-0.0085828406736254692 -0.0053994162008166313 -0.037823554128408432 0.067263498902320862 0.94615095853805542 -0.31666100025177002 119 116 104 0.72589027881622314
-0.0091707408428192139 -0.0037316186353564262 -0.036756370216608047 0.059877552092075348 0.41426116228103638 -0.90818631649017334 123 119 109 0.7476356029510498
-0.0089691411703824997 -0.0034272517077624798 -0.036535177379846573 0.016585197299718857 0.94157862663269043 -0.33638477325439453 125 121 108 0.81303495168685913
-0.0097856912761926651 -0.0034034231211990118 -0.034889202564954758 -0.25409689545631409 0.43384557962417603 -0.86441469192504883 126 123 110 0.80121290683746338
-0.010173279792070389 -0.0034432618413120508 -0.034597456455230713 -0.24717117846012115 0.27044877409934998 -0.93046438694000244 126 122 109 0.85618460178375244
-0.0099519509822130203 -0.0030408038292080164 -0.034663517028093338 -0.25381180644035339 0.43387678265571594 -0.86448287963867188 128 125 111 0.88116598129272461
-0.0099508054554462433 -0.0026104790158569813 -0.034589428454637527 -0.20742300152778625 0.070401571691036224 -0.97571474313735962 130 127 113 0.89053219556808472
-0.010185231454670429 -0.0022505056113004684 -0.034644264727830887 -0.1855158805847168 0.71503919363021851 -0.67401987314224243 130 127 113 0.71313196420669556
-0.010070265270769596 -0.0016616306966170669 -0.034929189831018448 -0.08097606897354126 0.65595030784606934 -0.75044798851013184 129 125 112 0.91368162631988525
-0.010568554513156414 -0.0014315696898847818 -0.034025914967060089 -0.43594574928283691 0.71496915817260742 -0.54659879207611084 125 122 109 0.960735023021698
-0.010620683431625366 -0.0010664566652849317 -0.033359147608280182 -0.43964681029319763 0.70995813608169556 -0.55015456676483154 117 113 101 0.98220729827880859
-0.01098859217017889 -0.0011943303979933262 -0.033203110098838806 -0.31125688552856445 0.80723404884338379 -0.50149023532867432 121 116 105 0.97620654106140137
-0.010000328533351421 0.00014028952864464372 -0.035548225045204163 -0.24640226364135742 0.070143461227416992 -0.96662604808807373 108 105 94 0.95446497201919556
-0.009799836203455925 0.00047909666318446398 -0.03535839170217514 -0.29050877690315247 0.32739615440368652 -0.89911985397338867 104 101 89 0.88923019170761108
-0.0092899082228541374 0.0038596112281084061 -0.037200286984443665 0.088959388434886932 -0.47712764143943787 -0.87432008981704712 100 98 85 0.77809524536132812
-0.0090730171650648117 0.0049618883058428764 -0.037281099706888199 0.14511999487876892 -0.33082160353660583 -0.93246841430664062 95 92 83 0.95472031831741333
-0.0096182720735669136 0.0051632127724587917 -0.036755580455064774 0.30724793672561646 0.19209513068199158 -0.93203979730606079 94 92 81 0.94763553142547607
-0.0081837521865963936 0.0071121249347925186 -0.039701346307992935 0.26813790202140808 0.12257158756256104 -0.95555126667022705 89 87 77 0.8490605354309082
-0.0083949193358421326 0.0075016799382865429 -0.039591744542121887 0.080286234617233276 -0.24861821532249451 -0.96526843309402466 91 89 78 0.75196975469589233
-0.008020997978746891 0.0096655245870351791 -0.040512803941965103 -0.55111211538314819 0.055793166160583496 -0.83256375789642334 92 92 80 0.88485205173492432
-0.0077849994413554668 0.010158882476389408 -0.040693461894989014 -0.46083164215087891 -0.08987697958946228 -0.88292491436004639 92 92 80 0.8976476788520813
-0.0079788239672780037 0.010532586835324764 -0.040882732719182968 -0.17924553155899048 -0.012341856956481934 -0.98372703790664673 93 93 81 0.9303278923034668
-0.0080521302297711372 0.011250676587224007 -0.040946327149868011 0.19127672910690308 0.19931769371032715 -0.96108579635620117 97 96 86 0.93037283420562744
-0.0077932854183018208 0.011602926068007946 -0.040818534791469574 0.38798147439956665 0.46734470129013062 -0.79439246654510498 96 95 85 0.93682408332824707
-0.0081678144633769989 0.011964348144829273 -0.040921963751316071 0.26355260610580444 -0.06825488805770874 -0.96222728490829468 100 100 90 0.90675783157348633
-0.0078644389286637306 0.012414107099175453 -0.041177850216627121 0.24370959401130676 -0.020622938871383667 -0.96962904930114746 101 100 90 0.93904536962509155
-0.0079116756096482277 0.013227598741650581 -0.041291337460279465 0.022300079464912415 -0.10980629920959473 -0.99370294809341431 104 104 92 0.83405792713165283
-0.0075960136018693447 0.013656831346452236 -0.041557352989912033 -0.33861258625984192 -0.26839381456375122 -0.90183496475219727 102 102 91 0.90389680862426758
-0.0077704247087240219 0.014347256161272526 -0.041284691542387009 -0.12431220710277557 -0.6041100025177002 -0.78714525699615479 105 105 93 0.82517063617706299
-0.0082419244572520256 0.015363793820142746 -0.040623638778924942 0.064842760562896729 -0.077274784445762634 -0.99489897489547729 104 103 96 0.96501582860946655
-0.0082859070971608162 0.015333870425820351 -0.040633141994476318 0.070187747478485107 -0.057691335678100586 -0.99586409330368042 104 103 96 0.96559625864028931
-0.0081957941874861717 0.015816513448953629 -0.040963456034660339 0.24932348728179932 -0.20381669700145721 -0.94672936201095581 99 99 92 0.98787844181060791
-0.0082312216982245445 0.01578611321747303 -0.040900755673646927 0.0673951655626297 -0.059953466057777405 -0.99592345952987671 100 99 92 0.98720657825469971
-0.00799543596804142 0.016171015799045563 -0.040959268808364868 0.077288076281547546 -0.050066068768501282 -0.99575096368789673 95 94 88 0.98785603046417236
-0.0079662958160042763 0.016167681664228439 -0.040980406105518341 0.19463652372360229 -0.20341296494007111 -0.95955187082290649 95 95 88 0.98650515079498291
-0.0081926910206675529 0.016529383137822151 -0.041064966470003128 0.24083518981933594 -0.18685205280780792 -0.95240998268127441 76 75 71 0.98941290378570557
-0.0081702033057808876 0.016529746353626251 -0.041073575615882874 0.25983986258506775 -0.20166783034801483 -0.9443587064743042 77 76 71 0.98939317464828491
-0.0081961993128061295 0.016505429521203041 -0.041061781346797943 0.25554165244102478 -0.20579668879508972 -0.94464081525802612 77 76 72 0.99004876613616943
