ply
format ascii 1.0
element vertex 219
property float x
property float y
property float z
property float nx
property float ny
property float nz
property uchar diffuse_red
property uchar diffuse_green
property uchar diffuse_blue
end_header
-0.018405051424442747 0.036380474607771836 -0.04415717220445741 -0.5586518884212808 0.18810081000339968 -0.8077906596691395 107 112 116 
-0.01760717464758218 0.036232500704354444 -0.04492662138051201 -0.23426373406719303 0.343569726688264 -0.9094390814312936 103 111 114 
-0.0192692011622992 0.03569724238863452 -0.04316441290388433 -0.029583276548183213 0.2869001805412347 -0.9575029980925991 106 114 117 
-0.0012970340983434973 0.03916893784795609 -0.037980904813562685 0.8600361142173456 -0.04567047999300489 -0.5081841689033886 158 177 176 
-0.0008821772297859464 0.04018696351164977 -0.03904544418748576 0.718691513191313 -0.10597792626783198 -0.6872044751654752 152 174 177 
-0.001108033325879499 0.039503550211453395 -0.03751465713430276 0.9272776757846153 -0.29796366214482883 -0.22665640165678408 158 180 183 
-0.0011121634989961055 0.03983087464759756 -0.039414196058309536 0.9612612849344171 -0.210435025317167 -0.17802615890514867 155 175 178 
-0.006782916535290964 0.03744973769652137 -0.041300546369582504 0.30919486542008895 0.3596463017958748 -0.8803702144888181 131 145 145 
-0.006913543097692529 0.03817726301660507 -0.041102799381320776 0.1869342063784853 0.7797130337743795 -0.5975799729301804 131 147 149 
-0.02088480129148533 0.012922572405883324 -0.04237122032667445 0.33536227672937746 -0.46790986958882885 -0.8176742829337665 86 92 95 
-0.020842898762218964 0.013594639778412066 -0.04183997012868889 0.20435409261713755 -0.44947950933185077 -0.8696011616488633 86 94 97 
-0.02059186846372108 0.013493874794808548 -0.043108967798870336 0.04291180217926248 -0.4190078582283927 -0.9069671984275222 84 90 91 
-0.021266742152985775 0.013288280156686387 -0.04223015531597492 0.16695822401250926 -0.42300205904605426 -0.8906137133603803 89 95 99 
-0.029133748461517374 0.012790796486575651 -0.043450120564954384 -0.6864210073998503 -0.5669842396726995 -0.45536160469724274 92 97 101 
-0.02906157492604201 0.013380238161511607 -0.04257842039189992 -0.5426615905965182 -0.22187760026681005 -0.8101157511559425 97 105 108 
-0.028763387603153567 0.013205360479233506 -0.04352587933551843 -0.6037693044620787 -0.3575932843063554 -0.7124525132087469 96 104 107 
-0.02956652985437941 0.013275253327441533 -0.0438179028373763 -0.4959221006423994 -0.45223021495712595 -0.7413149527323154 96 102 106 
-0.018048801992769873 0.012692286431333997 -0.04141015043454028 -0.5438396882124328 -0.40991390998265387 -0.7322621123519031 80 86 89 
-0.018020942719891107 0.013396369038430245 -0.041008630408749976 -0.031182477614959125 -0.8120552239904862 -0.5827456120484191 78 87 88 
-0.005083158925053027 0.05764973282801266 -0.024290917900535627 0.340425367640182 0.8917103515503969 -0.29826484766075684 71 84 82 
-0.004877089377608658 0.058003976583456976 -0.023849398953139946 -0.3390670268969022 0.5256492441166971 -0.7802086716017222 78 85 81 
-0.005856662012685258 0.057839571021639585 -0.02351505888829268 -0.3848924683674127 0.7211535740642002 -0.5760159463752739 74 86 87 
-0.0005488891473753007 0.06082918232394234 -0.023579925453069136 -0.3841161032881842 0.7697570106077215 -0.509831322695709 115 136 136 
-0.0002697385529840423 0.061215691270753485 -0.02331171813567671 -0.37253456584416145 0.7752153759040719 -0.5101549930036765 111 133 135 
-0.005996839146582727 0.058177066971399065 -0.0232416140947914 -0.42621857500730276 0.8521467110467867 -0.30361595734805935 75 87 85 
-0.0003707825501944189 0.061170518658429644 -0.02307054258872014 -0.3668848098608257 0.790660534859836 -0.49015347962105515 111 133 135 
-0.00014336933587937413 0.06153408819163132 -0.022678167293040365 -0.302689764479173 0.8187615670883 -0.4878599220236106 109 132 134 
-0.00020138834712329738 0.060984908466796946 -0.024408021916688255 -0.1499034119860998 0.759389024323428 -0.6331319737548282 115 136 136 
2.428500896148127e-05 0.06134713710370276 -0.024013504439940606 -0.19644730797808713 0.7622136186758359 -0.6167963286266182 111 133 135 
0.002147822204580268 0.06545026601806272 -0.020780547842413063 0.3507413181144592 -0.4899080089995578 -0.798103568947812 0 0 0 
0.002393242653719145 0.06502616139776449 -0.02031274095698079 0.39186190422040246 -0.5640849258141303 -0.7268088320382391 0 0 3 
0.0017826945352623384 0.06502609063417845 -0.020841695473549304 0.5278040219236261 0.017050605825025433 -0.8491942317137865 0 0 5 
0.002134922574638429 0.0649134855492776 -0.01968614501174781 -0.07720685722508774 0.086289850688236 -0.9932734378141186 0 0 3 
0.0023208121367493083 0.06446201876821409 -0.01907114336058951 -0.07019936437624341 0.2849656770319076 -0.9559631429569174 0 0 10 
0.001863963837057081 0.06413099198881635 -0.01991830656086829 -0.3428005869751125 0.08805442477079291 -0.9352718780616593 10 27 40 
0.0015659139630215366 0.06453319008347211 -0.020259590024825143 -0.3461410632879906 -0.02036417054596032 -0.9379610828412543 0 3 12 
-0.05196841151731192 -0.014857572195174976 -0.04476851277089294 0.3656059816777614 -0.22354639935182027 -0.903525269499965 12 11 17 
-0.051192470209137635 -0.014155767511298867 -0.045424595692487676 0.8752732394706486 0.19034741225213872 -0.44459392943948034 12 10 14 
-0.05230360662573195 -0.014441071297606191 -0.045009295918519474 0.3640338742860776 -0.036925406522867826 -0.9306527239542615 12 12 19 
-0.05250417321402054 -0.013941148671488818 -0.045504118519484785 0.031941464252930096 0.550003585674933 -0.8345505108673122 10 10 15 
-0.05304708601584858 -0.013436271995546187 -0.044537070887339256 0.0051894835911648896 0.6334657148552525 -0.773752550461044 7 7 12 
-0.05220220175746436 -0.013536103093393656 -0.045260860409183964 0.8376753900030762 0.2690246548967238 -0.47531542103109126 6 9 14 
-0.05263121797821251 -0.01339654232691759 -0.04613645207346896 0.11577018808190492 0.5598047156624102 -0.8204965827087494 8 9 13 
-0.04260551384438373 -0.021680975565928205 -0.045886760122716315 -0.007992540299797568 0.4942837697627259 -0.8692631814641988 6 5 9 
-0.049931797226516555 -0.019246954140216564 -0.04739820146541772 -0.3088204937528051 0.2422134269275513 -0.9197618090599571 1 1 3 
-0.05018757474026314 -0.018569424640056547 -0.04697235315831874 0.20946781958102328 0.5913435437802448 -0.7787391713371759 0 0 3 
-0.050549346301476075 -0.019012635513330642 -0.047100734444801354 0.3258052649313712 -0.40371701678828525 -0.8549047571612443 0 0 2 
-0.052785007843856854 -0.014729283480014545 -0.04243036908279927 0.23077037538231537 0.7802081980228279 -0.5813938725026908 11 9 15 
-0.05009699116514118 -0.019353618375941753 -0.04708423588187287 0.15199944629519357 0.5775734567688608 -0.8020621836130837 1 1 3 
-0.052559792065196724 -0.014600997109295827 -0.044524228885344914 0.9793714860291826 0.0712433828517342 -0.18909097860496776 12 12 19 
-0.05287864921394534 -0.013956454649075436 -0.04398019652498334 0.8614310024061165 0.5028931759667005 0.0709553534561636 7 7 13 
-0.05282144349118622 -0.014138536866688235 -0.04490432993688691 0.8313359105839868 0.4906987104771631 0.26095034869217737 10 10 15 
-0.04960583118085567 -0.026357746119973456 -0.03393531213624737 0.9303704849871854 0.13963009594195194 -0.33898894662014734 4 4 9 
-0.049230208953142326 -0.02676208306781941 -0.033753236669992435 0.9399964540187229 -0.02337718555050186 -0.34038137919944034 1 2 6 
-0.05303954122946833 -0.020827177179186317 -0.04319644585649297 0.9869012492233519 0.12013540315252474 -0.10767095204644855 2 2 6 
-0.0482043390030412 -0.002429906254492067 -0.0460230755850335 -0.18491554903054747 0.4342387969126804 -0.8816132442066749 87 93 98 
-0.04728338333355359 -0.0024908673023615628 -0.04691217157626661 -0.02330417762236059 0.5079879254617371 -0.8610481965536261 86 88 96 
-0.04798191604745564 -0.002522433689486439 -0.04726367868601327 -0.04197006836394862 0.5231322676858767 -0.8512167584382324 89 91 98 
-0.05566311461174038 -6.0965737881843256e-05 -0.047246604488050056 0.04707448201041864 0.6940125523173077 -0.7184213779179087 135 139 147 
-0.047220497459026234 -0.0030916202844953732 -0.04781631827191445 0.3633500031921787 -0.019027347878398437 -0.9314576614704957 80 85 91 
-0.04625529621135539 -0.002294086736419209 -0.04885478104255129 0.8055302952029081 -0.381490478524634 -0.4534147734463826 81 84 92 
-0.047788467028318134 -0.002822726114187757 -0.047603252844788564 0.17840209932214787 0.25809374805119034 -0.9495046151943636 89 92 98 
-0.05600535202870316 -0.00048759194672422874 -0.047410542127483496 0.4906910231625686 0.17766208945247522 -0.8530282210624177 136 139 149 
-0.055938868285672176 0.00038081153742749183 -0.047589970898683547 -0.4961198478670978 0.5963396229448108 -0.6310653152425234 137 141 149 
-0.055846212759307706 -0.000165177434187412 -0.04690518709286506 0.05296866707932635 -0.20062095792515655 -0.978235339885726 136 139 148 
-0.05687233582100261 -0.00038140022459786754 -0.04665449462025083 0.21224607386042582 0.048182500066468875 -0.9760270237810795 135 140 149 
-0.04542271442068054 -0.0030092117814180504 -0.04870451392276541 -0.18164142619413634 0.8833664994628375 -0.4320518271923148 63 69 73 
-0.045731567059306824 -0.003415523149735791 -0.048924078550698136 -0.12706638710281526 0.8017140606353974 -0.5840440705282024 62 65 73 
-0.02136602396633252 -0.004519029001426432 -0.05485052746214662 0.5932661698810309 0.2516662785863566 -0.7646555021803386 107 112 118 
-0.045508234280093096 -0.003668645741369305 -0.047661562470757445 -0.07815585653433857 0.9744247410938297 -0.21068160150303977 57 63 71 
-0.0462447635889859 -0.003280082176185733 -0.04630400663487069 -0.6878454350591994 0.6110323853097697 -0.39180033559071886 62 65 73 
-0.04608810272365722 -0.0037959697163386418 -0.04572404548997422 -0.15679141608646116 0.9819602808392152 -0.10568405229846506 60 68 73 
-0.04627727829451329 -0.0035215634401860357 -0.047058847223101184 -0.7143339385212873 0.5664622069395803 -0.410910070853295 63 69 73 
-0.02007127961182339 -0.0034669312067293523 -0.05670384031210899 0.5736758580379481 0.8082741412106079 0.13262002036556536 109 111 118 
-0.020925826796850816 -0.003214899743825153 -0.055003855554628625 -0.21231681571304772 0.9769997862456686 -0.0197902304962769 107 112 118 
-0.021300639157988698 -0.0040777772996996465 -0.053303649302748474 0.5633622799178504 0.8018689096282452 -0.19906812636222915 108 110 117 
-0.02104993505686392 -0.0034957619778825874 -0.05558486715082713 0.45599239699053645 0.7848726265502917 -0.41957672424838216 107 112 118 
-0.032080360545129964 -0.0036554128341957865 -0.05578834285446918 0.30580967346185706 0.9520763329195494 0.0054659511434472785 143 152 164 
-0.03359992379012378 -0.003792899144135431 -0.052828599628664895 -0.12066567630436334 0.985255805780995 0.12128241953341887 165 173 183 
-0.051609016792304334 0.0010614338534714262 -0.053108843747548276 0.27505244570690734 0.37539708651911774 -0.8851111961660929 120 123 133 
-0.051477873903624356 0.0019581800127412854 -0.053410098177259564 0.6529201368623463 -0.13918877392358067 -0.7445270381794103 130 133 143 
-0.050734922979942934 0.0017901031185228312 -0.053950336907390664 -0.5371163560255217 0.07582483562753622 -0.8400929773022467 121 124 133 
-0.03744893212638545 -0.007058100674722799 -0.048483777770058974 0.4207585737324832 -0.1462549892432655 -0.8953046041594988 146 154 164 
-0.037897012219289684 -0.006510671298877786 -0.0476646271415674 0.9850338300531533 -0.13938131903934442 0.1013953081306937 158 168 178 
-0.037392675246531795 -0.006811279067189251 -0.0477664169634243 -0.37066683197739186 -0.05522029632595121 -0.9271225294057635 145 155 165 
-0.04656837004806187 -0.004000470084767155 -0.052270203676046574 0.31051900343231154 -0.7452850049924815 -0.5900227481060442 63 67 73 
-0.046498196559956254 -0.003133601270695603 -0.05246388931460058 0.8330344656338988 -0.04206293713863449 -0.5516187865471032 73 78 84 
-0.046514028541097194 -0.0037476639908697314 -0.05156774967855611 0.4004369168191025 -0.11473101094781665 -0.9091125922798453 65 71 74 
-0.04694348415736631 -0.003620573833214432 -0.052420536757243154 0.42362513970366356 0.15839859969589276 -0.8918801815142846 67 73 78 
-0.05205284981096547 0.0016302204301409519 -0.05233475937188977 0.18760383134220637 0.5960686157520008 -0.7807084384626783 130 133 143 
-0.052571272988216386 0.0021585143141809615 -0.051421313851993465 -0.5272179036860575 0.29503258303362045 -0.7968667193899386 135 138 149 
-0.05172243960995225 0.00204784403514279 -0.0521569675809193 0.12280262873063064 0.7624859344472183 -0.635242763274169 129 132 142 
-0.05286678685824894 0.0017604524982189813 -0.05166555518481107 -0.5640891843977955 0.37092458817800744 -0.7377112330722448 134 139 149 
-0.03570265398035991 -0.005132532393890242 -0.052011563304970976 -0.10741263048956176 0.9076052581859342 -0.40584963444819344 158 168 178 
-0.035096869822945485 -0.004541700109527614 -0.0523899586513008 -0.21617112107602654 0.4759618430551511 -0.8524842495816329 168 179 188 
-0.046843114538039764 -0.003148266077378527 -0.05264133045597479 0.336140074289105 0.5790446773189895 -0.7427757035820044 74 78 84 
-0.04706732806410599 -0.002457514025832866 -0.0522743302577439 0.5082541861536101 0.2663165377364837 -0.8189944066814344 79 86 92 
-0.0464970222508966 -0.002720779432754904 -0.05249608293865836 0.8073741811817097 0.19476123394873918 -0.5569685545905544 79 83 90 
-0.046971863867827646 -0.002622285623679458 -0.053259039506495374 0.3548486767638064 -0.21891648266392796 -0.9089315879774638 76 80 88 
-0.05143640488345532 0.001388574383411781 -0.0526363769064112 -0.24550118803976306 0.43210786488159925 -0.8677620861968641 121 124 133 
-0.05165718169840773 0.002085015714029919 -0.05227919103533284 -0.08491379842274038 0.5917878407498566 -0.8016081583005381 129 132 142 
-0.050885499727479015 0.0019321470567526234 -0.05287285841848412 -0.351141920960671 0.720599490691501 -0.5978584729690739 119 124 134 
-0.05203240762402069 0.0016418804162590729 -0.05237299102056874 -0.20490515135688325 0.447144810720927 -0.8706746930063813 130 133 143 
-0.03708356102061939 -0.0066164641211003015 -0.04837974777875205 0.3308971041829962 0.29043992854226797 -0.897858783059188 145 155 165 
-0.03656627336126931 -0.006079304416070573 -0.048578007329411095 -0.48392461220010724 0.8716622487771752 -0.07759367662143765 149 159 170 
-0.03726148140653811 -0.00611153421960195 -0.04892358833755445 0.9570561378877811 -0.23179221101251607 0.17411412939810156 158 168 178 
-0.046439052647186084 -0.0037026906129812537 -0.05171084958668287 0.3655590636609475 0.16729264277411274 -0.9156300451912573 63 68 72 
-0.04644216188125897 -0.002879237661829858 -0.051765224347416275 0.25290304986487744 0.0840350448035084 -0.9638344438522859 80 83 90 
-0.04651592573796657 -0.00352818258252479 -0.0507564589615509 0.4532497067780693 0.11044685328403289 -0.8845138954885249 70 75 79 
-0.052293786993189754 0.0012636464915119262 -0.05267983342737491 -0.021737604873569016 0.47877897579052053 -0.8776656480894371 132 135 145 
-0.05286033210004032 0.0017641212642209808 -0.05167760849867674 -0.4867830490356817 0.5226648758441705 -0.6999021494635955 134 139 149 
-0.05199957648922333 0.0016606069144078806 -0.052434392885970696 -0.0515582740198971 0.6848302729425096 -0.7268755175597199 130 133 143 
-0.05302704356354546 0.0014393740479885166 -0.05216200381215529 -0.2656804231139245 0.4395733319602161 -0.8580141599897326 136 139 148 
-0.03793401246687365 -0.006533908835841901 -0.04759133112662133 0.9504102434475036 -0.21510530956553556 -0.22460962430723663 158 168 178 
-0.047255057365141455 -0.0036151993849070805 -0.05266174611506072 0.5423765393586126 0.4791974250430451 -0.69006971852107 68 73 79 
-0.04717582056961803 -0.0027436431348144205 -0.052871567122325644 0.6180156749942309 0.3646998683525694 -0.6964548596537381 76 80 88 
-0.0470437504403663 -0.0032680642411998502 -0.05225957072391788 -0.26902818682447555 0.36569036097278335 -0.8910070303666815 74 78 84 
-0.04759484483800019 -0.0032144958578825336 -0.05287868949038879 0.6009304989940744 -0.08307571027365135 -0.7949714776105435 73 77 86 
-0.03687014822409893 0.023301105309495525 -0.04708444384868623 0.8874136032523496 -0.35110632314806783 -0.2986982958631646 107 111 119 
-0.03466892038610956 0.023889325435596916 -0.05057966252301117 0.22914504358627721 0.558474321636483 -0.7972437705935727 108 110 117 
-0.0347160684683376 0.02466856641479455 -0.05055442249305807 0.07120509713993217 0.6526314510277733 -0.7543213680562562 108 113 119 
-0.033721417639226585 0.024625411969902113 -0.0516520455749972 0.6223126569666944 0.018734069949768728 -0.7825437351446255 110 112 119 
-0.035216296529060026 0.02416766116012269 -0.05037608643409822 -0.1448256621439668 0.5950911724870593 -0.7905004243427084 107 111 119 
-0.02315361955865086 0.01466641549800651 -0.05136281658223112 0.7913361092238755 0.2099408040478517 -0.5742046413809733 87 93 95 
-0.023574864468509482 0.015228231259562198 -0.05056571839121131 0.7953262922991509 0.03329808602150655 -0.6052654394546653 91 96 100 
-0.01040441532058072 0.013608574642132608 -0.035144617056391325 0.7015482598291272 -0.6467137513478463 -0.2993163975648798 98 106 109 
-0.01662825140136345 0.012666822637641437 -0.04088504060419146 0.676230569206147 0.023777745257725552 -0.7363053656878131 61 68 69 
-0.016072485065586905 0.013819451123573889 -0.04217907814380183 0.7506352693532177 0.016694247231290815 -0.6605049919446843 59 65 68 
-0.016401780378085623 0.01302050015775349 -0.04050120784412787 0.6401209817054188 -0.0012980909104816363 -0.7682721936374864 60 67 68 
-0.025162743492163374 0.014306787635302355 -0.04726869071079446 0.30525876667789265 0.21058113058687944 -0.928693341508775 91 96 100 
-0.02511251687231597 0.015147452137819848 -0.04745104833638545 0.9054080794218651 0.056497731103336474 -0.4207652699338811 92 97 101 
-0.024272228668939726 0.015046024297405446 -0.04827531116297977 0.2592537128818493 -0.6102991762852399 -0.7485459763476765 89 95 99 
-0.008449281665131174 0.01582435198382931 -0.04057037125518079 -0.05663316955276615 -0.09141447470105979 -0.9942006962447718 87 93 95 
-0.008615161873012901 0.015509699066881266 -0.041088759778006904 0.16183968617007088 -0.1899553985444112 -0.9683612958053197 89 96 97 
-0.015350450878603936 0.014254482771403643 -0.04374498105445741 0.3349222032046736 0.0660267699650072 -0.9399288425102782 60 64 66 
-0.01547786331831386 0.014991174767960098 -0.04355691466304608 0.5504346667074459 0.22648293598984653 -0.8035706742485695 59 62 66 
-0.015321753827336472 0.014488210750986717 -0.042936262308609176 0.635718079175503 -0.004684137452176412 -0.771906275773651 58 62 62 
-0.016041081156935758 0.014436226606950065 -0.043206577868294065 0.11814094668211012 -0.023703293700352207 -0.992713272397442 61 65 67 
-0.02312919727095641 0.014497662351020492 -0.050535262054708895 0.3968698833326699 0.03342620303513458 -0.9172652938452007 87 90 94 
-0.004969771020728881 0.01754180529441898 -0.028830070044471 0.6870000006918271 -0.19073905224364887 -0.701176426140492 66 77 77 
-0.004819266033582339 0.017023922501410153 -0.0281461155662604 0.7426068032077422 0.023954128579866146 -0.6692982698254889 64 73 74 
-0.005035571562420219 0.01728609303220114 -0.02960226461497499 0.4829156480564273 -0.782391516389258 -0.3932616162779688 68 76 77 
-0.006908928782657029 0.015667777543684435 -0.030912084768925912 0.4803653742487834 -0.76231770438617 -0.43372747249067456 73 81 85 
-0.007121432772187121 0.014924845881628554 -0.029401934762255482 0.691884340782674 -0.5644231687711279 -0.4502459384820621 70 81 84 
-0.007292511642573847 0.015216486761934824 -0.030949854007119405 0.5525580634859625 -0.7780502922310858 -0.29885802014598917 75 84 83 
-0.007701057098918848 0.014137145521310315 -0.029911391362016152 0.6747509816314665 -0.6736096085741468 -0.30159595067609446 77 86 87 
-0.007172036668680418 0.015290944946666517 -0.031225681061085347 0.6188959374729748 -0.6208856374494403 -0.4811108204824522 75 84 83 
-0.007435944856141118 0.014515665409246837 -0.029600031423773574 0.5565200496286289 -0.6985021426685407 -0.4498654579945818 75 83 86 
-0.007747757110165725 0.014720692162221174 -0.030824465093241465 0.6243503618408079 -0.6550546093943261 -0.42554539960007776 80 87 88 
-0.05133123330029132 0.013592698276204017 -0.04715219422989211 0.7199415980592363 0.2832391968026741 -0.6336075273399553 90 93 97 
-0.04569779992476838 0.004672175009029779 -0.04123162072290764 0.46002085813545635 0.648940054339908 -0.606016747243243 82 85 89 
-0.045555527241836175 0.005584248614246378 -0.041574620171299245 0.21776433495319938 0.44458527421445043 -0.8688620680572839 86 88 94 
-0.04536387274775852 0.005094179848913822 -0.04105522320274245 0.2917889369392369 0.5095537528204597 -0.8094521771224196 84 86 90 
-0.04606892384837264 0.005060136952780255 -0.04140112831887496 0.1826155132010543 0.9801122514961931 -0.07765452804114525 85 90 94 
-0.05081945811603957 0.008589839727074857 -0.04609569089839314 0.11666098146959464 0.4955979445676419 -0.8606808950736025 87 92 100 
-0.050694850477919294 0.009482305758444344 -0.04639193514764489 0.590151125009857 -0.0006528271343708147 -0.8072917106164829 86 90 98 
-0.05054216691909204 0.009328752211602525 -0.04748851456278027 0.3317784657436209 0.7477590266757778 -0.5751331430919809 75 84 90 
-0.050244051447605124 0.015637069584643736 -0.04849578370806581 0.8592910409354761 -0.007673925847554192 -0.5114284675989127 75 80 86 
-0.0498241789360741 0.015283011521737423 -0.04843041649273728 0.5173092122307824 -0.1222356450223139 -0.8470231835152396 68 72 78 
-0.04218083601800876 0.006913620322394706 -0.04727049358918272 0.20537419017997013 0.1255236731379255 -0.9705997887712322 84 86 90 
-0.0421183789485913 0.007770834225552968 -0.04745765975043901 -0.06755287605058374 0.27294883008065196 -0.9596533037085702 85 85 92 
-0.041942174538230674 0.0072786401672034935 -0.04691714850225694 0.10562012061493281 0.26136925131130423 -0.959442161565861 82 83 87 
-0.04248039898589387 0.007335626273946481 -0.04756967511901874 -0.054032097755581765 0.2395167059573022 -0.9693870177400977 86 88 94 
-0.0492955183026819 0.009662372391777639 -0.04818488683110498 -0.13561657432187274 0.5404929214378515 -0.8303459864197306 88 95 102 
-0.05022254163395833 0.009977526634021544 -0.04648151381602706 -0.1703167418304109 0.8722790332203523 -0.45838876336463985 86 93 101 
-0.04926238320173084 0.009916692887886033 -0.04744117918709791 -0.3800134874385907 0.500439294786267 -0.7779135387171794 94 98 107 
-0.04985484894247813 0.009941216442323373 -0.04798716360229388 -0.33377718630444336 0.4548666044871653 -0.8256441971677018 83 90 97 
-0.05231006664014082 0.014306489043684808 -0.045388105192973274 0.6200432669723928 0.7186794769518727 -0.3147142825382595 66 68 74 
-0.04574917818392673 0.005242497659371438 -0.04202356810124238 0.48798606737962924 0.8723667507011305 0.02906575632421693 84 89 93 
-0.04396378659654665 0.005938550875523592 -0.04964359265315835 0.21928669618934893 0.1347811140373291 -0.9663053802817143 93 95 101 
-0.044401786614100346 0.006509731591756677 -0.048860186819895415 0.10734117017966255 0.4840659319149889 -0.8684219972500905 90 92 101 
-0.04409912333803839 0.0060897500635858385 -0.04856912572970402 -0.5756373888649317 -0.11454125874875033 -0.8096428625321228 87 92 98 
-0.04490589163623146 0.005993635920890739 -0.04869943270287562 0.755553982347739 -0.05488264847882812 -0.6527824517164196 93 95 101 
-0.018358261994411353 -0.004374141412985712 -0.058365535200251895 0.8363783909423874 -0.46365994324569126 -0.2923863626376059 104 111 117 
-0.017396104566202494 -0.004347216388379693 -0.05946109039552412 0.8226125017876469 -0.3866426631662826 -0.4169114607396073 111 118 124 
-0.019164866626314597 -0.00510762528787095 -0.05752000630614688 0.8570183053456208 -0.44561098887377715 -0.2587463423132622 105 109 115 
-0.012965467403111062 -0.01109419583099306 -0.02665189899248747 0.6183083182485014 -0.7020122890072188 -0.3533728842035959 109 119 122 
-0.0159884888182823 -0.009656482615086445 -0.03980868680339739 0.8519587476007429 -0.4451472327295418 -0.27569804469642256 89 98 104 
-0.023487911613850138 -0.007366604861601165 -0.049437069405761085 0.7189519448102959 0.15219890478525772 -0.6781905434119256 108 111 115 
-0.021320403139811386 -0.006973021671988122 -0.051253584532031056 0.9494357142741897 -0.07625556409909226 0.3045601253638828 112 116 122 
-0.021199114853256904 -0.006070678026571215 -0.05158697812531754 0.6355207435390628 -0.7600821176940664 -0.13560054518017647 109 113 122 
-0.02092164137358795 -0.006509173547878269 -0.05123917625461265 0.5650126482735174 -0.2958601473803656 -0.7702117584085895 106 113 119 
-0.021469138366516035 -0.006448342254399854 -0.05187016389292835 0.9714076505434897 -0.053594268518896364 0.23128934253529063 104 111 117 
-0.010158295360481748 -0.008919687677766767 -0.03206905152180347 0.7898172648919412 -0.08266509692001861 -0.6077450792714263 115 123 128 
-0.010148665628504208 -0.009102718182259415 -0.033005465449635694 0.9819216154526127 -0.0364154535019362 0.18575188010586646 109 119 122 
-0.014950412580962445 -0.00938668082814747 -0.04021014998330291 0.5587650292798928 -0.8143728435867008 -0.15677169795943996 91 99 102 
-0.01461083495284611 -0.008958833026282928 -0.04006566508675271 0.7508226044400257 -0.07267990537924074 -0.6564921136811039 91 98 104 
-0.024178951195840348 -0.008025613879297976 -0.04884928218267357 0.3394770324819971 0.21178898713786484 -0.9164602610413056 107 112 118 
-0.024404618216811173 -0.007349438606425263 -0.04845910167268083 0.7797623365522839 0.4342164922385976 -0.4510274475065012 106 110 117 
0.008262167110761137 0.005190038659990393 -0.07984972814753598 0.9878286487917174 -0.08556914387681229 0.12989354559319188 98 106 109 
-0.006381806266426072 -0.009985516233855001 -8.717335347223831e-05 0.9890911786785177 -0.08957708451491228 0.11693769875572821 16 22 25 
-0.0022167348497538516 -0.007896648059788654 -0.023983575495514328 0.9935103993391139 0.06351762493049021 0.09435274850392195 165 183 185 
-0.001400568650101356 -0.006458563117467207 -0.026026570560164684 0.99459350906664 0.08216456440411275 0.0635023676527034 169 184 186 
-0.00279381063618105 -0.008128762170016533 -0.02166265436942002 0.9929260257083791 0.08295400770087405 0.08494924506431184 164 182 184 
-0.0016154301381413935 -0.006799400955735998 -0.02646705131394885 0.9961324809741364 -0.08785331641626877 -0.001266632552761715 167 183 185 
-0.009197570218327596 -0.0064541756592423494 -0.04001374433286107 -0.057678086034005704 0.4410532654206137 -0.8956249891852315 109 121 126 
-0.008715781921978619 -0.006758920436880521 -0.04009706554861952 0.12174844720351877 0.7655656720898971 -0.6317318823957765 105 112 118 
-0.009728772331866937 -0.007015561750773105 -0.03972444737729213 0.4009051156308524 0.15551259461525707 -0.9028231027519419 99 107 110 
-0.01379701879689576 -0.008360917115052042 -0.04365835291807795 0.06771477973290979 0.5080636443435212 -0.8586528882839523 90 99 99 
-0.01457556764739135 -0.008069288125432993 -0.04205008571229035 0.9810234719247874 0.1286077547349381 -0.14509503700888055 94 99 105 
-0.014260370821749685 -0.0070212606513646485 -0.04282826251860502 0.06104580139058208 0.39736073342684153 -0.91562908824918 95 100 106 
-0.014429514092024573 -0.007775803409098901 -0.04148539696405706 0.03791007195832108 -0.020808356266710876 -0.9990639028996856 88 98 101 
-0.014666022676885593 -0.007493384715833664 -0.042825008689881025 0.6358360417477582 0.031190902971932888 -0.7711928247357172 95 100 106 
-0.0033492044839174 -0.005977297565648955 -0.037970577545218175 0.1578296920510583 0.022360190838947747 -0.987212514117327 111 121 124 
-0.0036322421399664073 -0.0053463878722066205 -0.037423695329128065 0.4845250770716858 -0.1480787100077909 -0.8621524136161246 107 119 122 
-0.003106380576070122 -0.00561861442429802 -0.037613463090009965 0.007105326043112481 0.2754379395761335 -0.9612919934446572 101 113 118 
-0.004008564658859615 -0.005800238133801434 -0.037474868199537215 0.003700641914663516 0.033819539249035 -0.9994205415885008 113 121 124 
-0.013278665876810779 -0.007810274671062537 -0.04390959570831227 0.1841533131911131 0.07822090675702989 -0.979779446443399 94 100 103 
-0.013761087939317775 -0.00731451379272331 -0.04294607498107342 -0.7698578404579218 -0.05601159293198921 -0.6357527218508287 88 98 101 
-0.014511678804994405 -0.008217354947351475 -0.0430711020555806 0.3472455130448644 0.03331206519802962 -0.9371816808413076 91 98 104 
-0.014635456012517709 -0.007472343049535275 -0.04289158457739257 0.5174343388647945 0.09118156562851557 -0.8508503258034084 96 101 107 
-0.014179451988828891 -0.00779562763881442 -0.04291434006692317 0.2750535457536367 -0.2504155402814585 -0.9282436489585262 94 99 105 
-0.014815022181422301 -0.007788808864611639 -0.04338064831368764 0.7715992963809553 -0.3280530355251443 -0.5449904967427639 91 97 105 
-0.0039153833850598336 -0.00656696352614253 -0.03758556460568477 0.9261344967077001 0.04995270758904502 -0.3738701467494363 113 121 124 
-0.004061672838414763 -0.005838008550573558 -0.03735306390150933 0.3376236217635197 -0.26253530899130634 -0.9039270692591855 113 121 124 
-0.0033405174057222807 -0.005971096590374851 -0.03799053726327616 0.0738108088883444 -0.01906855207551142 -0.9970893460045426 111 121 124 
-0.025789556819556542 0.03481329519297119 -0.045389892538286396 0.1117470410553601 0.11798677394478961 -0.9867068904111777 110 115 121 
-0.02565297477713042 0.035126501047225624 -0.04483235164354681 0.7173058460410306 0.44076862014006857 -0.5396241692488362 110 118 121 
-0.026222825224203345 0.035150747611495496 -0.045408382635140125 0.36156079212288605 0.31746302723334496 -0.8766354171912445 113 118 122 
