ply
format ascii 1.0
element vertex 285
property float x
property float y
property float z
property float nx
property float ny
property float nz
property uchar diffuse_red
property uchar diffuse_green
property uchar diffuse_blue
end_header
0.001704891106048545 0.06277419427391517 -0.020334211219467435 0.37669391970337845 0.16735230702340506 -0.9110954374775722 105 116 110 
-0.009302785635325578 0.03752822471044187 -0.04266210610914556 0.40077763663257543 0.21033812484614559 -0.8917035153073103 114 125 128 
-0.06042645536817132 -0.012010847948992431 -0.04839492127379724 0.7520099331107639 0.2879033110914429 -0.5929525646839958 38 47 53 
-0.04387040682144405 0.023579248579067597 -0.049651956050605295 0.7494295498644997 0.2402738437196939 -0.6169471855953778 75 74 76 
-0.052129432050481206 0.006520142479200602 -0.04719459370282314 0.7515664099133438 0.26465898165970586 -0.6042379952608203 117 134 144 
0.002079146287578826 0.0626295156737758 -0.020206039231086104 0.37669344554818185 0.16735330616351535 -0.9110954499925789 123 135 128 
0.001771080697500732 0.062229476480065396 -0.020406889667925254 0.37669344554818185 0.16735330616351535 -0.9110954499925789 99 103 97 
0.0016808039995963864 0.06298796021841388 -0.02030489451303974 0.37669344554818185 0.16735330616351535 -0.9110954499925789 112 130 128 
0.0013709627562583926 0.06290933335098903 -0.020447441270222577 0.37669344554818185 0.16735330616351535 -0.9110954499925789 100 116 114 
0.0018192917650294849 0.06259473209880093 -0.020319865649158553 0.37669344554818185 0.16735330616351535 -0.9110954499925789 111 118 109 
0.0016690197200872892 0.06333397153124826 -0.020246210512637197 0.37669344554818185 0.16735330616351535 -0.9110954499925789 125 148 149 
0.002127815164217617 0.06292156731737071 -0.020132272221100478 0.37669344554818185 0.16735330616351535 -0.9110954499925789 133 157 150 
-0.009100541331907103 0.03736621866698045 -0.0426094110815215 0.40077704888325083 0.21033918744086325 -0.8917035288228649 114 125 128 
-0.00978775836703541 0.03732908815687189 -0.04292704040135842 0.40077704888325083 0.21033918744086325 -0.8917035288228649 101 114 116 
-0.009393908395486011 0.03697607075230333 -0.04283329484531262 0.40077704888325083 0.21033918744086325 -0.8917035288228649 105 114 115 
-0.059291838738501024 -0.012118344805022246 -0.0492186497879607 -0.7773979755186521 -0.2312202560038728 -0.5849697264585619 16 23 30 
-0.04377968458929332 0.023374812864469435 -0.04994906523896808 0.7445426155535722 0.24405085476676183 -0.6213658132793101 79 78 82 
-0.04403049638852696 0.024112669451931357 -0.049791638853538045 0.7464558527443352 0.2424244923433786 -0.6197047889243575 56 56 62 
-0.044154269740412866 0.023590865114729798 -0.0498732691021222 0.7541292081430276 0.244209994061478 -0.6096315413641775 79 79 85 
-0.04367528293971623 0.023597472227181976 -0.04937069302861585 0.7354178800663109 0.23239653194088827 -0.6365158235429978 59 60 62 
-0.05180170817021379 0.006675804989207196 -0.046718765205611024 0.7515656859021703 0.2646609925383942 -0.6042380150263572 106 115 125 
-0.05229387255745549 0.006641874924599306 -0.04734579316632337 0.7515656859021703 0.2646609925383942 -0.6042380150263572 92 105 115 
-0.05195395747429121 0.0062721535077736035 -0.04708493789689222 0.7515656859021703 0.2646609925383942 -0.6042380150263572 121 133 142 
-0.0521416404096085 0.0070455267130858645 -0.04697964167990287 0.7515656859021703 0.2646609925383942 -0.6042380150263572 87 104 116 
-0.051997636230319666 0.006657944852173359 -0.04697028827368499 0.7515656859021703 0.2646609925383942 -0.6042380150263572 117 130 139 
0.002432331956996714 0.06265029399924285 -0.020056187085262134 0.37669297139033475 0.16735430530228573 -0.9110954625075848 135 157 150 
0.00212429739374001 0.062250265686915246 -0.020257022970909033 0.37669297139033475 0.16735430530228573 -0.9110954625075848 113 117 108 
0.0018162214681706756 0.061850183739923806 -0.02045788553404604 0.37669297139033475 0.16735430530228573 -0.9110954625075848 88 91 86 
0.0012824736333209574 0.06334638895595573 -0.020403736751784862 0.37669297139033475 0.16735430530228573 -0.9110954625075848 107 130 134 
0.001123598178479901 0.06294054722857442 -0.02054397046424017 0.37669297139033475 0.16735430530228573 -0.9110954625075848 91 107 107 
0.001988845369829545 0.06338791236052063 -0.020104059696133603 0.37669297139033475 0.16735430530228573 -0.9110954625075848 138 166 170 
0.0015905391816670444 0.06374631079270565 -0.02020290792093027 0.37669297139033475 0.16735430530228573 -0.9110954625075848 98 122 129 
0.002387167028048337 0.06302949968965037 -0.02000520699804742 0.37669297139033475 0.16735430530228573 -0.9110954625075848 144 177 178 
-0.008756941062994322 0.03738478173597748 -0.04245059031558018 0.40077646113110893 0.21034025003394102 -0.8917035423384186 112 123 125 
-0.009050298999819545 0.03699463601198835 -0.04267446972875044 0.40077646113110893 0.21034025003394102 -0.8917035423384186 111 121 124 
-0.009737528028426895 0.036957501538434356 -0.04299210537398457 0.40077646113110893 0.21034025003394102 -0.8917035423384186 100 109 110 
-0.009837994433676417 0.03770065737750228 -0.042861961035454366 0.40077646113110893 0.21034025003394102 -0.8917035423384186 104 113 112 
-0.009430414652681823 0.03730321736749223 -0.042772523895786785 0.40077646113110893 0.21034025003394102 -0.8917035423384186 110 120 123 
-0.013445208681836213 0.034992120535797006 -0.03547802946275458 0.03617331834870182 0.46497801016565116 -0.8845829192913659 99 108 109 
-0.009343670242094343 0.03660447266949979 -0.042898359009844844 0.40077646113110893 0.21034025003394102 -0.8917035423384186 103 111 112 
-0.009578200272971266 0.03752635720690781 -0.042786310343854606 0.40077646113110893 0.21034025003394102 -0.8917035423384186 111 123 121 
-0.0598438675496637 -0.012416538097169805 -0.048115050599828846 -0.7776901801241621 -0.2285377852429704 -0.5856350949650184 20 24 29 
-0.058751121501909254 -0.012086464045565265 -0.049901136079639974 -0.7771315460046921 -0.23233676232546666 -0.5848813461519153 14 21 26 
-0.05921819961612845 -0.012284265331171551 -0.04903560587029615 -0.7778478190752409 -0.22901715520871854 -0.5852383386108578 15 22 28 
-0.04252686463286787 0.023719545476770743 -0.05046331326266762 0.459797079840488 -0.6381671643031824 -0.617518676458773 75 74 78 
-0.04413712381374957 0.024138986984263755 -0.05020904269899079 0.7485461232110677 0.23465152705297362 -0.6201752673860743 63 65 71 
-0.04387266229062725 0.02397491008413455 -0.0495856676006618 0.7421236244746111 0.24285452757474651 -0.6247193005127287 54 52 57 
-0.04410141857655708 0.024326637738732143 -0.050642130430501586 0.7491375101197911 0.23146649916275788 -0.6206579176139275 68 69 76 
-0.04432074163823202 0.023835570762248487 -0.050332553715839334 0.7727776753697501 0.2815322027230275 -0.5688183218568521 84 87 93 
-0.04405417051032923 0.023367334282080876 -0.04988622854588515 0.7509086348224799 0.2357530691954903 -0.616892788508624 84 84 90 
-0.04392478712376813 0.023866394588969636 -0.048988900073770325 0.735805227562853 0.23164047918210048 -0.6363437400457909 47 49 51 
-0.05189556063616596 0.007062502718174407 -0.04666610809574767 0.7515649618856161 0.2646630034151025 -0.6042380347918939 93 108 119 
-0.05253993712330435 0.006624908967101328 -0.04765926896712008 0.7515649618856161 0.2646630034151025 -0.6042380347918939 39 46 54 
-0.05220004082328783 0.006255199881862544 -0.04739843330552923 0.7515649618856161 0.2646630034151025 -0.6042380347918939 124 137 147 
-0.052387719557010326 0.007028546188608931 -0.04729314084908337 0.7515649618856161 0.2646630034151025 -0.6042380347918939 36 47 60 
-0.05242306636929944 0.006327294788199461 -0.047644258029523046 0.7515649618856161 0.2646630034151025 -0.6042380347918939 96 107 117 
-0.05213988989465895 0.007330219907522306 -0.046852750083880346 0.7515649618856161 0.2646630034151025 -0.6042380347918939 71 91 104 
0.0027855010018814075 0.06267107136821348 -0.019906342151634226 0.3766924972298374 0.16735530443971633 -0.9110954750225899 146 183 182 
0.002477497462664513 0.06227105393676825 -0.020107163487338653 0.3766924972298374 0.16735530443971633 -0.9110954750225899 127 137 125 
0.0021694525666446363 0.06187098287370417 -0.020308011497729317 0.3766924972298374 0.16735530443971633 -0.9110954750225899 101 100 91 
0.0009292591121874139 0.06332562418883657 -0.02055357718702 0.3766924972298374 0.16735530443971633 -0.9110954750225899 99 120 124 
0.0012373553991692765 0.06372555678334468 -0.020352733087944497 0.3766924972298374 0.16735530443971633 -0.9110954750225899 90 112 118 
0.001159097264892578 0.0625586453735097 -0.020599432383817118 0.3766924972298374 0.16735530443971633 -0.9110954750225899 88 101 99 
0.002342002614939498 0.06340867100213317 -0.01995422308105932 0.3766924972298374 0.16735530443971633 -0.9110954750225899 141 178 183 
0.0019436986623480312 0.06376706047160309 -0.020053071426192615 0.3766924972298374 0.16735530443971633 -0.9110954750225899 75 108 118 
0.0015454106214082275 0.06412543590045883 -0.020151916373368772 0.3766924972298374 0.16735530443971633 -0.9110954750225899 19 33 43 
0.002131377164554249 0.06373586012822154 -0.019981207263349177 0.3766924972298374 0.16735530443971633 -0.9110954750225899 96 135 146 
0.0017362169795678561 0.06410716426317586 -0.02007638358928321 0.3766924972298374 0.16735530443971633 -0.9110954750225899 46 71 83 
0.002740321831172371 0.06305026720379078 -0.019855369762865838 0.3766924972298374 0.16735530443971633 -0.9110954750225899 138 183 191 
0.0029738834070760223 0.06287647001595273 -0.01979072747364452 0.3766924972298374 0.16735530443971633 -0.9110954750225899 98 152 170 
0.002526616338766885 0.06336448108604471 -0.019886010142611488 0.3766924972298374 0.16735530443971633 -0.9110954750225899 115 161 175 
-0.00870669256426912 0.037013201146671226 -0.04251564617887005 0.40077587337614945 0.21034131262537872 -0.8917035558539718 109 122 124 
-0.008807195258466599 0.03775634493003219 -0.04238552004436513 0.40077587337614945 0.21034131262537872 -0.8917035558539718 118 128 131 
-0.018553429360375878 0.03204449873923482 -0.019444998938771496 -0.5247474738833352 0.015116896816603649 -0.851123709036292 121 132 135 
-0.01898714520718317 0.031921614740310106 -0.01896288463592888 -0.5253459793566411 0.017221912832019504 -0.8507144101825348 114 126 126 
-0.009000054679289743 0.0366230399954281 -0.042739531109002526 0.40077587337614945 0.21034131262537872 -0.8917035558539718 102 113 113 
-0.009687295701333115 0.03658590155819055 -0.0430571730796675 0.40077587337614945 0.21034131262537872 -0.8917035558539718 100 109 110 
-0.013444999251646134 0.03499222784901465 -0.035478479757636516 0.03617347732203688 0.464979004046276 -0.8845823903597478 99 108 109 
-0.009417525716273828 0.03775947234598964 -0.042874025270693616 -0.5607042435889097 -0.004825637363565996 -0.8280020920537726 109 120 120 
-0.011934277687528388 0.036790811470823775 -0.03973759313267333 -0.13463493703252616 0.4222751031161349 -0.8964135044824488 98 107 108 
-0.009987476429357683 0.03793445686409047 -0.042873985242419366 0.40077587337614945 0.21034131262537872 -0.8917035558539718 98 109 110 
-0.011426686003623038 0.03719111958723026 -0.040572116692073945 -0.4001422994641165 0.17746124555862214 -0.8991071385014979 98 107 108 
-0.0099956561649924 0.03815499554333257 -0.04282563967308339 0.40077587337614945 0.21034131262537872 -0.8917035558539718 95 106 106 
-0.009293430100167782 0.03623286122453223 -0.042963425907514674 0.40077587337614945 0.21034131262537872 -0.8917035558539718 101 109 113 
-0.008758793141703164 0.03670930357633409 -0.042610747134047666 0.40077587337614945 0.21034131262537872 -0.8917035558539718 107 119 122 
-0.059161103680840876 -0.01234099921851009 -0.04880738262992668 -0.7740130347088493 -0.23718045444961486 -0.587068355583804 13 20 24 
-0.060619675294969755 -0.012685390749057363 -0.04699565994461524 -0.780140510722692 -0.22207809702132358 -0.5848607546696265 16 18 21 
-0.05931848937865408 -0.012563961502973203 -0.04902273891818304 -0.7775443654421867 -0.229533801683736 -0.5854391459867699 14 19 27 
-0.06459678775822225 -0.014111787815101667 -0.04736425513047976 -0.488599116826989 -0.6201216968784736 -0.6137751901929964 15 15 22 
-0.05951273319975586 -0.012464477381447459 -0.04857037840462508 -0.7771299434519939 -0.23111141088205497 -0.5853687442547704 13 20 24 
-0.04238714729518245 0.02344344829653605 -0.05030205785971953 0.010624818375518218 -0.7850432127647102 -0.619349874728775 78 81 86 
-0.04295027817697317 0.02366160761815117 -0.050734027356062195 0.46739128147865017 -0.6300805622250395 -0.6201160174547368 84 84 90 
-0.042710007128264005 0.023167222542559207 -0.05011234796228131 0.4591553468922569 -0.6360160738301414 -0.6202095784893551 83 87 91 
-0.044190079390359016 0.023712561203539095 -0.05014308430718967 0.7640545267953468 0.16167688701605237 -0.6245648599531817 81 82 89 
-0.044075649794129645 0.02442828368227762 -0.05002536916609934 0.7485454790109223 0.23465353016571638 -0.6201752870222064 54 55 61 
-0.043648426206907676 0.02398490224058769 -0.04934059447358652 0.6976163096035113 0.1593628986007133 -0.6985234077142702 47 48 50 
-0.0441817965278104 0.024281089621457586 -0.05049176843052938 0.746792232015796 0.22325327644680518 -0.6264657506652953 68 69 76 
-0.044372092191892976 0.024184522314654705 -0.05102535626884919 0.7505716515308839 0.2261259671932849 -0.6208939062988965 83 81 88 
-0.04403169209043156 0.023885279271550763 -0.05127789254570381 0.483370244853281 -0.6634531858340965 -0.5711243967797793 103 104 108 
-0.044168804149314955 0.022945463099275032 -0.04999396950858842 0.7535906776083084 0.22668705285583224 -0.6170203162695598 93 96 102 
-0.05180809579678003 0.007362404444429649 -0.046425940632511875 0.7515642378636809 0.26466501428983075 -0.6042380545574304 93 99 105 
-0.05278598501245063 0.0066079441273616535 -0.04797272328683089 0.7515642378636809 0.26466501428983075 -0.6042380545574304 5 8 11 
-0.05263378202659502 0.007011566782979817 -0.047606618535377954 0.7515642378636809 0.26466501428983075 -0.6042380545574304 2 5 10 
-0.05248156755029515 0.007415218707972376 -0.04724048782045559 0.7515642378636809 0.26466501428983075 -0.6042380545574304 3 9 16 
-0.052692151922395014 0.006221297940662479 -0.04802536413091252 0.7515642378636809 0.26466501428983075 -0.6042380545574304 29 38 45 
0.003138653423165161 0.06269184778074072 -0.01975650442979293 0.3766920230666897 0.16735630357580705 -0.9110954875375944 120 174 186 
0.003309919508304171 0.0628149537284553 -0.019663081638226942 0.3766920230666897 0.16735630357580705 -0.9110954875375944 22 71 98 
0.003399791020037568 0.062465264882709634 -0.019690157131114883 0.3766920230666897 0.16735630357580705 -0.9110954875375944 67 126 149 
0.002978767140664196 0.06209943582987627 -0.019931427091344878 0.3766920230666897 0.16735630357580705 -0.9110954875375944 142 160 147 
0.0025226670359539127 0.06189178105003991 -0.020158144675698098 0.3766920230666897 0.16735630357580705 -0.9110954875375944 117 118 106 
0.002715258614684718 0.06196599479275619 -0.02006488566105824 0.3766920230666897 0.16735630357580705 -0.9110954875375944 136 144 131 
0.0005760278314013989 0.06330485841507494 -0.020703424573330742 0.3766920230666897 0.16735630357580705 -0.9110954875375944 89 109 113 
0.0008841549650845937 0.06370480181450279 -0.020502565460495226 0.3766920230666897 0.16735630357580705 -0.9110954875375944 73 92 96 
0.001192240923589688 0.06410469168780444 -0.020301733479008433 0.3766920230666897 0.16735630357580705 -0.9110954875375944 15 30 38 
0.0027873571434775812 0.06349855661547736 -0.01975357001149347 0.3766920230666897 0.16735630357580705 -0.9110954875375944 43 85 107 
0.0023396681090805393 0.0638131027512301 -0.019880890020644748 0.3766920230666897 0.16735630357580705 -0.9110954875375944 29 64 78 
0.002120575813031045 0.06408616970979772 -0.019921315224313063 0.3766920230666897 0.16735630357580705 -0.9110954875375944 17 44 56 
0.0015002858205607483 0.06450452809144118 -0.020100928879274838 0.3766920230666897 0.16735630357580705 -0.9110954875375944 0 3 12 
0.0026499718647544634 0.06380855877598127 -0.01975343004051877 0.3766920230666897 0.16735630357580705 -0.9110954875375944 8 38 56 
0.0018534206515584128 0.0645252597418255 -0.019951117024837206 0.3766920230666897 0.16735630357580705 -0.9110954875375944 0 2 13 
0.003234822131062104 0.06318416701497308 -0.019626312586894956 0.3766920230666897 0.16735630357580705 -0.9110954875375944 23 68 94 
0.003446584984810902 0.06309180088683221 -0.019555725251462652 0.3766920230666897 0.16735630357580705 -0.9110954875375944 1 25 51 
0.003048270012046772 0.06345018664882444 -0.019654578232229825 0.3766920230666897 0.16735630357580705 -0.9110954875375944 0 17 42 
-0.009150797214392853 0.037737779813251326 -0.04254432056642454 0.4007752856183723 0.2103423752151763 -0.8917035693695243 113 124 127 
-0.010727173493999903 0.037182637770319577 -0.03817678227003651 -0.0997082933436326 0.4280717597074581 -0.8982276018802029 110 123 125 
-0.008949808370307982 0.036251430617325164 -0.04280459522230129 0.4007752856183723 0.2103423752151763 -0.8917035693695243 102 113 113 
-0.016529875598811833 0.032565774712458695 -0.027819011129078808 -0.35160279097061126 0.21099334920169852 -0.9120621053274425 97 105 108 
-0.016250394662409656 0.03258743220042956 -0.028186252054209104 -0.41142611424504744 -0.06571037812776444 -0.909071338632743 98 107 108 
-0.009580608846813249 0.03602755099412239 -0.04314091983377888 0.4007752856183723 0.2103423752151763 -0.8917035693695243 99 108 109 
-0.01217245564906419 0.037204326223691075 -0.03958189640615273 -0.13505363196686737 0.42203271631348954 -0.8964646690492691 96 104 105 
-0.010231834002154355 0.03805364943943032 -0.04295568515446113 0.4007752856183723 0.2103423752151763 -0.8917035693695243 97 106 105 
-0.014879607278153933 0.035874901012944854 -0.031767052292547726 -0.18824134952042548 0.44644932666196824 -0.8747846552459663 92 103 106 
-0.014999545244451712 0.03577389599166822 -0.03184598567718966 -0.21734260739074088 0.4330887191191579 -0.8747550242121056 92 104 104 
-0.011426671989524823 0.03719112631941651 -0.04057214456431124 -0.40014063780399795 0.17746368147579303 -0.8991073972195246 98 107 108 
-0.011686178709355038 0.03740926386223414 -0.04025509941674554 -0.40380099165700045 0.16878316661746726 -0.8991423701524711 96 104 102 
-0.014999545051218893 0.03577389605253814 -0.03184598584866516 -0.21734260739074088 0.4330887191191579 -0.8747550242121056 92 104 104 
-0.015042127739121308 0.035926852286108174 -0.031647378348535704 -0.17103852583143997 0.45597234548702326 -0.8734042837268836 92 104 104 
-0.009243187969696892 0.03586123641742614 -0.04302849553834587 0.4007752856183723 0.2103423752151763 -0.8917035693695243 101 109 113 
-0.008606186419163137 0.03627000157603258 -0.04264577320504115 0.4007752856183723 0.2103423752151763 -0.8917035693695243 107 119 119 
-0.059223478780214445 -0.012933510577202628 -0.04855512906634929 -0.7739481462435363 -0.23688166553538126 -0.5872745043498633 13 15 20 
-0.06407251654372897 -0.013866409260606477 -0.0479865830272298 -0.7493808177969251 -0.31134219618378756 -0.5843752448499745 15 16 22 
-0.06419319234450399 -0.014119905326151733 -0.04724890038348123 -0.6350603724525531 -0.45972802759813314 -0.6207644190682603 12 15 21 
-0.0626083425504868 -0.013352245944366598 -0.049522527993262344 -0.6748548231109077 -0.4089009870888291 -0.6143052583868435 15 19 24 
-0.06870651985441595 -0.01620846934242165 -0.04420594552688367 -0.5928409189024983 -0.5179743386862772 -0.6166378429332368 16 16 23 
-0.06712593186480825 -0.01473261335183651 -0.04548803639507687 -0.5960432593039638 -0.5153276392126726 -0.6157676975140878 17 17 23 
-0.04106516334024346 0.023663313425083876 -0.05062371539523536 0.04079720792014642 -0.7522688988222279 -0.657591888400939 78 81 87 
-0.04324645629610241 0.02376892138103337 -0.050274321243352404 0.36501668808376714 -0.6940280047544379 -0.6205545471889895 75 74 76 
-0.04249598493176027 0.023413936323835427 -0.05023851295864301 0.020550231963683597 -0.7833627841596325 -0.6212249482755082 79 82 86 
-0.04323461273889684 0.023120751407113727 -0.050214946336198774 0.27644224482343377 -0.375015637900043 -0.8848406391025474 89 92 96 
-0.042197089074359484 0.022778566695257296 -0.04923659718332163 0.4354448870758536 -0.5673807155868746 -0.6989040519982862 97 104 110 
-0.044642341421105125 0.024158095314639444 -0.05130967263854147 0.7505527928071355 0.22559864895966678 -0.621108488749737 103 101 107 
-0.044361968229089055 0.023797006413186078 -0.05110642976823593 0.7503536725366324 0.22605824353052761 -0.621181967415894 103 104 108 
-0.044446618317183384 0.02455640920019128 -0.05097999294717237 0.7505710301238936 0.22612797589739175 -0.6208939259288223 72 72 77 
-0.044767846111244625 0.024395085048053655 -0.05142706458537627 0.7505710301238936 0.22612797589739175 -0.6208939259288223 97 96 100 
-0.044313147882459436 0.023855197150927154 -0.05155290024695258 0.4694699532063347 -0.6735757228584114 -0.5708710087333306 109 110 115 
-0.043999782657131226 0.022597757793591855 -0.04996324345448033 0.7509975488627328 0.21809885765892537 -0.6232459946843133 93 96 102 
-0.05287982782023398 0.006994588496073401 -0.04792007474120086 0.7515635138363649 0.26466702516257884 -0.6042380743229666 4 5 7 
-0.052727627924124054 0.007398225855078044 -0.047553967392543584 0.7515635138363649 0.26466702516257884 -0.6042380743229666 2 5 8 
0.003183847722297878 0.06231262756569528 -0.01980746615889506 0.3766915489008915 0.16735730271055782 -0.9110955000525982 118 174 186 
0.003677178783723395 0.06263197639496002 -0.019544838455806013 0.3766915489008915 0.16735730271055782 -0.9110955000525982 6 40 71 
0.003844911927683714 0.0627333993190995 -0.019456859244527225 0.3766915489008915 0.16735730271055782 -0.9110955000525982 0 0 14 
0.0036415532754374424 0.06301402569438766 -0.01948939040034381 0.3766915489008915 0.16735730271055782 -0.9110955000525982 0 1 20 
0.00324611656229834 0.06338551914855395 -0.01958464505297064 0.3766915489008915 0.16735730271055782 -0.9110955000525982 0 10 34 
0.003890138136276061 0.06235420036132534 -0.019507813939019902 0.3766915489008915 0.16735730271055782 -0.9110955000525982 0 17 48 
0.003582217245297392 0.061954172797716256 -0.019708603516230716 0.3766915489008915 0.16735730271055782 -0.9110955000525982 107 166 178 
0.002921056252578408 0.0615332839887949 -0.02005927181467826 0.3766915489008915 0.16735730271055782 -0.9110955000525982 127 126 113 
0.0030287098201014773 0.0618469044249349 -0.019957154530231613 0.3766915489008915 0.16735730271055782 -0.9110955000525982 142 152 137 
0.002567840677315858 0.061512475335500694 -0.020209130650883367 0.3766915489008915 0.16735730271055782 -0.9110955000525982 105 101 92 
0.00022277978952767175 0.06328409163458429 -0.020853278911309614 0.3766915489008915 0.16735730271055782 -0.9110955000525982 60 76 79 
0.0005309377722917674 0.0636840458395882 -0.020652404783620293 0.3766915489008915 0.16735730271055782 -0.9110955000525982 43 57 61 
0.0008390545751478795 0.06408394651607299 -0.020451557789705754 0.3766915489008915 0.16735730271055782 -0.9110955000525982 9 21 25 
0.0011471302060158117 0.06448379367432686 -0.0202507379243706 0.3766915489008915 0.16735730271055782 -0.9110955000525982 0 5 12 
0.000657612702818583 0.06407548729221657 -0.02052812925041625 0.3766915489008915 0.16735730271055782 -0.9110955000525982 5 14 19 
0.0033924306578946017 0.0636310984739684 -0.01947904594105887 0.3766915489008915 0.16735730271055782 -0.9110955000525982 0 0 11 
0.0029665644511288336 0.06404184730230884 -0.019579670956358708 0.3766915489008915 0.16735730271055782 -0.9110955000525982 0 0 14 
0.002543431188102324 0.06406401507935763 -0.01975054446643909 0.3766915489008915 0.16735730271055782 -0.9110955000525982 0 12 29 
0.002850760531227403 0.06375693870945266 -0.019679885192293356 0.3766915489008915 0.16735730271055782 -0.9110955000525982 1 19 42 
0.0022065347171402183 0.0645459886261765 -0.01980130235060007 0.3766915489008915 0.16735730271055782 -0.9110955000525982 0 2 10 
0.0014551647785582544 0.0648835873706433 -0.020049945438042505 0.3766915489008915 0.16735730271055782 -0.9110955000525982 0 0 5 
0.0016932001044737688 0.06488434170897667 -0.01995139127661394 0.3766915489008915 0.16735730271055782 -0.9110955000525982 0 0 8 
0.003818603436831075 0.06322005394425126 -0.019378346014722214 0.3766915489008915 0.16735730271055782 -0.9110955000525982 0 0 7 
-0.011334211615535855 0.03713692104136787 -0.03803196794044805 -0.4222120480397099 0.1227474995443397 -0.8981481157613849 107 118 121 
-0.009404603301227304 0.037980025824786545 -0.040609929901241903 -0.4410302131896981 0.07794748107506903 -0.8941009681506341 108 121 123 
-0.008899560072864882 0.03587980787770506 -0.04286966206867027 0.4007746978577779 0.21034343780333398 -0.8917035828850761 100 112 112 
-0.010372727596206915 0.03538935693842085 -0.0419071884596981 -0.3732964603230277 0.17551008822184816 -0.9109588144601584 97 106 106 
-0.009536580351806295 0.035471024874515256 -0.04325240688943588 0.4007758002108687 0.21034142656630933 -0.8917035618608842 95 104 110 
-0.016198975653080844 0.03219107704489649 -0.028152530161321465 -0.3489895795824578 0.21628828452421722 -0.9118254500289135 98 107 106 
-0.011670541638450355 0.037759723530619405 -0.040468766314732396 -0.40530495351944357 0.1727352871490204 -0.8977139941129063 98 105 104 
-0.012810146123101634 0.037174580876931346 -0.03910987002605015 -0.13968942853229988 0.4197831609639895 -0.8968104377890573 96 105 104 
-0.012396703350374044 0.03697870093217728 -0.039474398608981276 -0.1810533652599801 0.39470338159652746 -0.9007934943616668 96 104 105 
-0.01193465440064459 0.0367906091616623 -0.0397367322490767 -0.13463941661844872 0.4222547313075053 -0.8964224279774967 98 107 108 
-0.01142666512966331 0.037191129335451795 -0.04057215668403957 -0.40014212852219305 0.1774610005561434 -0.899107262935486 98 107 108 
-0.010978055292800132 0.03727650808727209 -0.040754634513058385 -0.40053570320264564 0.17685025329796183 -0.8990523557437625 103 111 112 
-0.011206126534717392 0.037462405103892205 -0.04047892741309023 -0.39708469874926666 0.16546971595273346 -0.902742219640649 98 107 108 
-0.009192933303292045 0.03548960387124031 -0.04309359136173263 0.40077505994383095 0.21034289998947198 -0.8917035470104612 99 110 113 
-0.008262570976394962 0.03628857052737727 -0.04248694485194782 0.4007746978577779 0.21034343780333398 -0.8917035828850761 111 122 123 
-0.008555932125208804 0.035898380818475295 -0.042710836888739 0.4007746978577779 0.21034343780333398 -0.8917035828850761 110 118 119 
-0.008071652716153038 0.03638132820727677 -0.04237925638429285 0.4007746978577779 0.21034343780333398 -0.8917035828850761 117 128 128 
-0.00835176144486341 0.035955365586912535 -0.04260563054270983 0.4007746978577779 0.21034343780333398 -0.8917035828850761 111 119 120 
-0.060307853573020986 -0.01353358634798782 -0.047188729484163694 -0.7586400759659176 -0.2838517254990499 -0.5864242773535545 15 16 21 
-0.058829921776560934 -0.013312081267429304 -0.048850667925827096 -0.7728931164751013 -0.24007199556588307 -0.5873684256498812 13 18 21 
-0.07134696099258836 -0.018386594020994684 -0.03580743456385538 -0.773838992830344 -0.23177347011054533 -0.589452518637621 17 18 23 
-0.059472731538745716 -0.013407207539254201 -0.04827367896169571 -0.7737408631411016 -0.23887362577076374 -0.5867405454004284 14 17 21 
-0.06380672209735755 -0.013674279727901528 -0.04849182021584497 -0.7721244562427183 -0.2407223803781574 -0.5881127099944025 13 18 23 
-0.06576701283846803 -0.014909490350425048 -0.04645676900140422 -0.7440267957059215 -0.31387893150128066 -0.5898339966729567 16 16 23 
-0.06582560028817236 -0.01482703598601598 -0.04544870063431139 -0.6400650874863523 -0.45175027336738804 -0.6214807915724977 11 13 18 
-0.06533392508252572 -0.015296063543357608 -0.045280232584734736 -0.5631632817011409 -0.5442847266264601 -0.621772671082254 18 19 25 
-0.06512515911899558 -0.014845315724310554 -0.046328782471341146 -0.6433853485371798 -0.4480219403570741 -0.6207508632667167 14 14 21 
-0.0653055267566705 -0.01390069146082254 -0.0469172469483195 -0.5944953479850984 -0.5112638108686093 -0.6206324169105122 16 16 23 
-0.06459835904082506 -0.014434688888548486 -0.04714511307330266 -0.6003019757218114 -0.5051998444841888 -0.6200085927450049 12 15 21 
-0.06417327309770054 -0.014897029868320005 -0.046394425404914286 -0.5980116393462324 -0.5056568089518008 -0.621846661780148 17 18 25 
0.004004086235698867 0.011842056330126721 -0.10165574767722063 -0.6411438961431051 -0.5611122286643727 -0.5235337346167291 14 17 24 
-0.06445585339491461 -0.013630152707658966 -0.04809735376671426 -0.6040625831519997 -0.5101307696034325 -0.6122703598407678 14 16 22 
-0.06214739409136999 -0.01320998463492068 -0.05006102134506146 -0.6724394047903012 -0.4129364187986075 -0.6142546384969725 15 19 24 
-0.0629807292690831 -0.013521465975741026 -0.04900439209864921 -0.6749765690374739 -0.4087214573444652 -0.614290974666417 13 18 23 
-0.06747321192256012 -0.016168186281675545 -0.04515129895638065 -0.6591070517740437 -0.427319520929362 -0.6188504838282253 15 17 23 
-0.06757769894590143 -0.015343789706168731 -0.046817142444551985 -0.6443463930575262 -0.4559868534692872 -0.6139167005522288 12 14 20 
-0.06954070368067805 -0.016536936880296033 -0.04294881358084751 -0.6370816365088959 -0.44860104451507055 -0.6268046675664873 14 14 21 
-0.0564126819862813 -0.01189120828548107 -0.053387781901799825 -0.6608892272786383 -0.4467914503912796 -0.6029948831659361 13 16 21 
-0.06736174033696757 -0.014846760663362879 -0.0468511705825026 -0.5824231980672582 -0.5296073121724721 -0.616684127610365 14 17 22 
-0.07010724246361705 -0.01653178392035687 -0.043378568620385805 -0.6209119277957569 -0.4691155949642678 -0.6280118919911294 12 17 22 
-0.07066166008079094 -0.016718431773781378 -0.04259746308665485 -0.658065018431168 -0.4197939139276702 -0.6250787961101179 16 16 23 
-0.06707527828954835 -0.015880064400139976 -0.04514865108839278 -0.6038678003952042 -0.49303071695511114 -0.6263101402536821 13 16 21 
-0.06964665454773572 -0.016310050058786302 -0.04410007255338183 -0.6404681017045951 -0.4448639142662981 -0.6260165401030393 14 17 24 
-0.06819161679752056 -0.016399893420340927 -0.04406263265675403 -0.6103006217565232 -0.4874814691811607 -0.6244157015070796 16 16 22 
-0.07251813855880934 -0.016879382603266324 -0.04073623026626744 -0.6576452479991357 -0.4230229331754755 -0.6233412594973738 17 18 24 
-0.06545294940267482 -0.013764418072348739 -0.048386615504774355 -0.6127120247510399 -0.4970042698779749 -0.6144678432990144 17 20 24 
-0.06766235284994654 -0.01546119171449123 -0.04446661462104956 -0.6328821084281503 -0.4568157820636775 -0.6251236502397662 12 14 20 
-0.06682867752642346 -0.01483298925543361 -0.045774704419681456 -0.5928310058801425 -0.5063401687742958 -0.6262356041880374 15 16 22 
-0.06778123892545745 -0.01517275543073332 -0.044680172858907796 -0.6017950071313093 -0.49469480643458763 -0.6269926776912735 14 16 22 
-0.06559015434583831 -0.014869993715863505 -0.04614330340704392 -0.6588545502696774 -0.42579147092136416 -0.620171189978672 12 15 21 
-0.0677859242846705 -0.014661201583153788 -0.0452804522412128 -0.6391500764195985 -0.46233477707753784 -0.6146004667403733 15 18 22 
-0.06674602422437942 -0.013982993114476622 -0.04655011199613679 -0.604948689567677 -0.5046644640259624 -0.6159146545908275 15 17 21 
-0.04173364784285538 0.023126560295231413 -0.049851695125294304 0.07533739669993397 -0.7519980842420253 -0.654845903976501 94 97 104 
-0.040848009384985506 0.02336982469075055 -0.050194168777603465 0.09075073579584787 -0.7483340046104929 -0.6570848662814682 96 100 109 
-0.043734621664873075 0.02350751521691763 -0.04945916414802087 0.3588480124932674 -0.2944290473997885 -0.8857424230423226 68 69 73 
-0.04342597314100183 0.024353021984062473 -0.051023937859895896 0.3646614438895436 -0.6936059834452303 -0.621234875928073 72 73 80 
-0.04265933014887863 0.02348752296269002 -0.049945242742533535 0.012178058663112166 -0.7813603366437905 -0.6239613122679165 70 74 79 
-0.04291422329924899 0.02357658158754783 -0.050740030746864784 0.2615849528550236 -0.3785922966615395 -0.8878294798824693 87 90 94 
-0.043389167940355244 0.02315298887156278 -0.05039138135889254 0.27952495871634514 -0.37200069064523156 -0.8851447811596114 91 94 98 
-0.0418074398312438 0.02289013512243679 -0.048986508941360196 0.4270550858092661 -0.5663834982291963 -0.7048643036912129 98 103 111 
-0.042032094735605485 0.02257934836462347 -0.048862211212648166 0.409437692066098 -0.5839363876521116 -0.7009843589491779 97 103 108 
-0.042062777322980305 0.02312626505716911 -0.04956239859816247 0.3190776325980813 -0.6433737294467563 -0.6958877126615871 88 90 97 
-0.04440402146698136 0.023889167605227274 -0.051588222406864614 0.7496389332202558 0.2297478451250161 -0.6206910644280361 109 110 115 
-0.0447306283394488 0.024570423432967614 -0.051266578075500946 0.7505521728047015 0.22560065762058704 -0.6211085083778035 90 89 91 
-0.044981236270516256 0.02412254659364843 -0.05173598648854566 0.7503530513019305 0.22606025164718996 -0.6211819870433234 106 110 115 
-0.04453300982154745 0.02495069127143959 -0.050940815608619405 0.7505704087115267 0.2261299845997917 -0.6208939455587482 69 68 70 
-0.044944292724998725 0.024530420126172098 -0.05159105869105218 0.7505704087115267 0.2261299845997917 -0.6208939455587482 106 107 113 
-0.044778875124354744 0.024932085300405193 -0.051244807290006356 0.7505704087115267 0.2261299845997917 -0.6208939455587482 80 76 81 
-0.0442213118607358 0.023434278507341977 -0.05116070387323446 0.35359635091850095 -0.7087185305009904 -0.6104815027022826 104 107 113 
-0.044425032066523706 0.023152214405289417 -0.050939241302859095 0.36529847217403544 -0.7065305246794451 -0.6061119070959614 101 106 112 
-0.04394360789831181 0.022563735693164833 -0.050273893688489335 0.7508980775256374 0.21847403777012087 -0.6232344438401343 96 96 103 
-0.04432445824900805 0.022451288471388026 -0.050288134614860036 0.7505905704287518 0.21695765558464677 -0.6241339369611741 94 96 101 
-0.044308391036575634 0.02211306220791004 -0.049781872210981015 0.7227193283815926 0.20306965570532132 -0.6606356691213259 87 93 97 
-0.052973671622764396 0.007381234121870778 -0.04786742548477396 0.7515627898036681 0.2646690360333468 -0.6042380940885027 4 3 4 
0.0037128051006119767 0.06224989231762111 -0.019600282463811625 0.3766910747324432 0.16735830184396883 -0.9110955125676012 28 81 111 
0.0033885517861182157 0.06185733917317583 -0.019806451980274864 0.3766910747324432 0.16735830184396883 -0.9110955125676012 142 182 176 
0.004129071220473568 0.06255585439416839 -0.019371976171627003 0.3766910747324432 0.16735830184396883 -0.9110955125676012 0 0 11 
0.0041980144231739125 0.06275417283744338 -0.019307043022216308 0.3766910747324432 0.16735830184396883 -0.9110955125676012 0 0 6 
0.004053988620322607 0.0629248802445442 -0.019335233449620404 0.3766910747324432 0.16735830184396883 -0.9110955125676012 0 0 6 
0.0041527777448627234 0.06313332900402556 -0.01925610006211398 0.3766910747324432 0.16735830184396883 -0.9110955125676012 0 0 0 
0.003754467249828891 0.06349169684205476 -0.019354953280642406 0.3766910747324432 0.16735830184396883 -0.9110955125676012 0 0 7 
0.0033561726663109415 0.06385005064538693 -0.019453803113073875 0.3766910747324432 0.16735830184396883 -0.9110955125676012 0 0 10 
0.003935364992994683 0.061974967051805205 -0.019558765051202576 0.3766910747324432 0.16735830184396883 -0.9110955125676012 6 39 71 
0.004432662848062707 0.06227081312975745 -0.01929881436447367 0.3766910747324432 0.16735830184396883 -0.9110955125676012 1 1 6 
0.0029662482123159195 0.061153955310462554 -0.020110254873089373 0.3766910747324432 0.16735830184396883 -0.9110955125676012 117 116 104 
0.0026130183872015156 0.06113313678959306 -0.020260121413437138 0.3766910747324432 0.16735830184396883 -0.9110955125676012 97 96 87 
-0.00013048501486942476 0.06326332384727797 -0.021003140201549697 0.3766910747324432 0.16735830184396883 -0.9110955125676012 25 33 36 
0.00017770381935564017 0.06366328885851441 -0.020802251057912446 0.3766910747324432 0.16735830184396883 -0.9110955125676012 11 23 25 
-0.00040601842946361155 0.06344393804178772 -0.021083882565318124 0.3766910747324432 0.16735830184396883 -0.9110955125676012 2 7 8 
0.00039843690824198363 0.06390887661251098 -0.020665877931000276 0.3766910747324432 0.16735830184396883 -0.9110955125676012 16 27 32 
0.00043195239409746233 0.06417463218183882 -0.020603204879120707 0.3766910747324432 0.16735830184396883 -0.9110955125676012 0 8 12 
0.0007939579418112519 0.06446305829853935 -0.020400554174044738 0.3766910747324432 0.16735830184396883 -0.9110955125676012 0 3 6 
0.0011020232458815171 0.06486286274790284 -0.02019974642342448 0.3766910747324432 0.16735830184396883 -0.9110955125676012 0 1 3 
0.00013263588521555958 0.06404245502358565 -0.02075123754355479 0.3766910747324432 0.16735830184396883 -0.9110955125676012 0 3 7 
0.0031749148095234214 0.06414940776494714 -0.019473759971463056 0.3766910747324432 0.16735830184396883 -0.9110955125676012 0 0 7 
0.0029641258381089275 0.06443026077029107 -0.019509321815729397 0.3766910747324432 0.16735830184396883 -0.9110955125676012 0 0 4 
0.002559632366604808 0.06456671664395634 -0.019651495371172834 0.3766910747324432 0.16735830184396883 -0.9110955125676012 0 0 6 
0.002161385061377169 0.06492502814076707 -0.01975033393175074 0.3766910747324432 0.16735830184396883 -0.9110955125676012 0 0 3 
0.0014100474948344488 0.06526261374305486 -0.01999896604906548 0.3766910747324432 0.16735830184396883 -0.9110955125676012 0 0 1 
0.0008489405507821624 0.0649280585461849 -0.02029240894192874 0.3766910747324432 0.16735830184396883 -0.9110955125676012 0 1 3 
0.0017631539735482593 0.06528332573704078 -0.019849169849675774 0.3766910747324432 0.16735830184396883 -0.9110955125676012 0 0 0 
0.0043506542423139005 0.06334870094272932 -0.01913472872465405 0.3766910747324432 0.16735830184396883 -0.9110955125676012 0 0 0 
0.003930147000410639 0.06378856815654321 -0.019227788709932248 0.3766910747324432 0.16735830184396883 -0.9110955125676012 1 0 1 
-0.010056796926104089 0.03740575472600996 -0.040824227374387956 -0.2910743628967247 0.24336870009329187 -0.9252282913309381 113 124 127 
