ply
format ascii 1.0
element vertex 353
property float x
property float y
property float z
property float nx
property float ny
property float nz
property uchar diffuse_red
property uchar diffuse_green
property uchar diffuse_blue
end_header
-0.049973870270119375 -0.001369288415496439 -0.05289186252010447 0.3673812703617899 -3.2157145137785204e-07 -0.9300704286167011 100 104 112 
-0.05223394789444394 -0.000987526622472229 -0.053446968776442394 -0.412918832147968 0.2559254581995574 -0.8740710485440556 82 84 91 
-0.051791016231760606 -0.001456912664415555 -0.05343041632497092 -0.42093181946414027 0.1600280120527363 -0.8928647370800673 80 84 89 
-0.05131462711936577 -0.0016487007117023111 -0.05346338253959537 -0.08594788327574411 0.11012490669736204 -0.9901946608042866 89 91 99 
-0.052139257720316384 -0.0016027689446867777 -0.053615516549640474 -0.10974585641799307 0.1828068061865094 -0.9770043595659997 91 95 101 
-0.0508462803387946 -0.0016365637296313629 -0.05402407732084602 -0.18074783338848022 0.18691899433110518 -0.9656042203116235 98 101 108 
-0.051291467974553334 -0.001084427733355764 -0.054054952659120636 -0.3233292182018888 0.5303510671643711 -0.7837001736726668 77 79 86 
-0.050951595335790995 -0.0020354983568820484 -0.05329095737402245 -0.15242979763797637 0.09614561322662102 -0.9836265438922043 104 107 116 
-0.051516651413508 -0.001724012117187007 -0.05320938840466316 -0.08927617201109198 0.08906051668943825 -0.992017131645445 89 91 99 
-0.05093716086734176 -0.0021617906094268113 -0.0531157274191284 -0.07308378569989343 0.3308263559143388 -0.9408574187942673 103 107 115 
-0.052179734021530894 -0.0005021663868641502 -0.051957138545531856 -0.3030974916208945 0.47174925021916103 -0.8280003354412251 94 98 106 
-0.05164927497343921 -0.000466476271977212 -0.053289214223341985 -0.19423945777859497 0.21372729202917834 -0.9573879452362829 89 93 102 
-0.05204943626330974 -0.0005396911276074889 -0.05177198066468247 -0.32358419769759084 0.47261855599481367 -0.8197102948784916 93 98 106 
-0.051573732516735665 7.491750726956736e-05 -0.05229455543385386 -0.32317837458097814 0.46910598017967003 -0.8218852216476873 101 108 114 
-0.05259056718838853 -0.0006684795760157347 -0.052241138928938 -0.24938385083391298 0.2201293111252979 -0.9430539652250821 95 99 106 
-0.05214778653254573 -0.00017442098169281883 -0.05203025020775465 -0.2594671424116621 0.37412591758370256 -0.8903407211853667 99 106 114 
-0.051582515332288664 -0.00019226696335120086 -0.052937446466086224 -0.15720723260395736 0.3898271903844424 -0.9073701822596867 94 98 106 
-0.05216227910681501 -0.0005344827658886886 -0.05360837864577017 -0.11560712242601846 0.18739145062441465 -0.9754585780427856 91 95 102 
-0.05243816797402093 -0.000984882835451617 -0.05294007464673389 -0.33672369987418777 0.052875114630310076 -0.9401177437937599 81 83 91 
-0.05189676309635069 -0.0012564570505183559 -0.053356963434368354 -0.08812154903322483 0.18051889241142674 -0.9796160074634023 75 80 84 
-0.05185499452503092 -0.0003335210170860303 -0.05311475335326499 -0.2615361429587351 0.5864753208492015 -0.7665804223700826 94 98 106 
-0.05239700872185912 -0.001493960578398651 -0.05311505049179088 -0.4060363118469317 -0.9138568506679163 -0.00041224878279656426 84 88 93 
-0.05150609053581809 -0.0015738978469697629 -0.05392819949409511 -0.39520215759683686 -0.918593021032603 0.0014547649298057622 89 90 98 
-0.02412428194450819 0.0084331759070643 -0.015603621834706538 -0.5408023457603651 -0.08907538744946111 -0.8364199891028519 33 41 44 
-0.02276973189235529 0.00882222929105822 -0.02105659024179285 -0.1868564726782087 -0.3039562735172636 -0.9341815896322065 38 41 45 
-0.021977673966711103 0.008681693246538669 -0.021790155875448525 -0.1932759407661418 -0.3000042394760188 -0.9341530212001556 37 43 45 
-0.023218858642848644 0.008774016490438241 -0.019158064966529942 -0.09283890751017064 -0.28051194358638937 -0.9553501906409525 35 40 44 
-0.02438585359974979 0.007555067780498498 -0.015016264788064393 -0.07166705378927365 -0.21370001297644628 -0.974266974630174 36 41 47 
-0.021670840917493356 0.009760994408290508 -0.02429220068863447 -0.38497685775326124 -0.6340255821316415 -0.6706745710082188 42 49 48 
-0.035143086435197285 0.0017111760293422873 0.007149331347292676 -0.1866441908666935 -0.27982829434662504 -0.941732484147582 35 40 44 
-0.020597647549051606 0.009409152024423384 -0.023673211893931012 -0.19226148690176004 -0.31278249676335346 -0.9301626902713348 36 42 44 
-0.022010997596574072 0.008986311314600148 -0.022114945616456883 -0.17924180507193047 -0.2951958524622773 -0.9384731130957484 35 45 43 
-0.019885714335891175 0.0096040577639038 -0.025819027882370782 -0.1745890548896301 -0.3192401901337318 -0.9314528237737671 36 44 47 
-0.03944869294987327 -0.002479158986883362 0.01928268795010979 0.04120749220970508 -0.5807466424324745 -0.8130407615176466 42 47 51 
-0.022595933146692088 0.008416014091986113 -0.021471617789683317 -0.19138755024661436 -0.42602288565992824 -0.884237132507218 46 50 52 
-0.021731974601194665 0.008294901223509815 -0.021965550285694357 -0.17763766142650153 -0.5301113366970613 -0.8291120744194831 40 44 46 
-0.022360423437692872 0.008599942658979481 -0.019839467958095436 -0.0723481860060867 -0.46679584925505424 -0.8814008027565446 35 42 41 
-0.017143982516997697 0.011468781684444929 -0.031028120715145047 -0.1852543285269442 -0.41186119932972987 -0.89221700625392 36 42 44 
-0.018404083800802523 0.011130324100500716 -0.02977309291306729 -0.18869313267814997 -0.38500148172308146 -0.9034205890675383 35 45 43 
-0.017946681394903657 0.010719816429271833 -0.029742644406501983 -0.19843042858396592 -0.41444095338978637 -0.8881801963370657 36 44 47 
-0.03592230990223469 0.0007675121159887999 0.009224997024675718 -0.18822108516824818 -0.3395113425556657 -0.9215773821954055 34 39 43 
-0.011992909820959213 0.014493055864355425 -0.0416437203038299 0.317280910625607 -0.7437341756370868 -0.5883810837731005 41 47 48 
-0.018024223917880805 0.011202362032932206 -0.03005459025382684 -0.16763704419905423 -0.4217127755672447 -0.891098286574256 35 40 44 
-0.013017394919582398 0.015164719665050452 -0.04068981320998455 -0.1741896579241611 -0.3038492158361468 -0.9366608869318834 33 41 42 
-0.016570700807571587 0.01301194860736915 -0.032445103421632315 -0.19041211377607573 -0.3197469908064281 -0.9281729843071068 33 41 42 
-0.024151255292868407 0.008354975126107084 -0.0169648197550879 0.005343243623753162 -0.4557306405232269 -0.8901016981423339 35 40 44 
-0.01305796751701413 0.015300248310760572 -0.04078695806824373 -0.16993966027700833 -0.3300400470761266 -0.928544064216084 35 40 44 
-0.012088106212025135 0.01562605293610933 -0.0433151791139087 -0.1726641460559555 -0.3053690437408811 -0.9364490588342472 35 40 44 
-0.013244697722787885 0.015156429816191141 -0.04002064358678392 -0.1761594575006019 -0.300544757451382 -0.9373583595944422 33 41 42 
-0.01900862346073831 0.01141017425310728 -0.03006301218704399 0.20384961521015382 -0.13553980506151017 -0.9695742857680169 42 49 48 
-0.023117918176310176 0.00915938247614645 -0.019960113627081277 0.29413121635962414 -0.1893282534335481 -0.9368252985560382 39 42 46 
-0.022962391126077092 0.008809422823200713 -0.021177536222941384 0.0919778546086141 -0.06384554616013621 -0.9937121416673496 44 51 50 
-0.013416318078546124 0.014550787969009132 -0.04212728034328583 -0.3589320692311329 0.6464648121250574 -0.6732391969883895 44 51 50 
-0.013773992606331747 0.013997308608753034 -0.04154990167602968 -0.17684990822970778 -0.3109510810346347 -0.9338273583283668 43 52 53 
-0.012867635925253113 0.013912407545695699 -0.04212523244682431 -0.16964929098542744 -0.3166377906441652 -0.9332521779262686 38 45 44 
-0.024965483478974065 0.007066715261073359 -0.015344439902674312 -0.21471932004511093 -0.3741188232703309 -0.902181090288523 37 43 45 
-0.013579045254039107 0.014112791340663455 -0.040867493376594455 -0.18093019518709563 -0.3056216103691103 -0.9348046297194678 40 43 47 
-0.012620151233724591 0.013902217886876289 -0.04121660130497107 -0.6132381652787446 -0.7852589772925674 0.0854826954827131 41 47 48 
-0.012326942926139922 0.013352047892136343 -0.0410520229790009 0.42376424332313484 -3.785471010722104e-10 -0.9057725244677998 53 59 63 
-0.01264195326656306 0.013904370557049878 -0.0418360704606785 0.740803750247108 -1.41435372517077e-07 -0.6717215223735209 40 44 46 
-0.012229661051985113 0.013584881943682153 -0.04168211640004005 0.50259793713239 5.9625759565523125e-09 -0.8645202794557604 47 52 58 
-0.02923686213636298 0.005591126846347272 -0.004062464815595135 0.1378651602487187 -0.0003739268157806044 -0.9904509365780475 35 41 42 
-0.025380984050697913 0.007439741534020827 -0.011279498567838164 0.15323664073488014 2.784404430298353e-05 -0.988189521883833 34 40 41 
-0.012396148815448566 0.015266198077037552 -0.042602562353126205 0.7459851473988466 -0.0019421666268060747 -0.6659597494211755 35 40 44 
-0.024649386237789755 0.008135465324577512 -0.014830481004389773 0.15354337828716427 -0.0003018875014219164 -0.9881418622081048 33 41 42 
-0.0125627218611781 0.015448633677992568 -0.04277828717426291 0.7446000914598774 1.703154950916997e-06 -0.6675108267249614 36 42 44 
-0.019146027515288072 0.011660111262593587 -0.02734513019156215 0.023097893429384897 -4.102442857619393e-05 -0.9997332072288692 35 40 44 
-0.011098580807869046 0.014551364822206203 -0.04018433456889736 0.0985143840987904 -5.744537240408051e-06 -0.9951356269838982 63 66 65 
-0.011386364552700673 0.01416132983617105 -0.04043230859667013 0.36653449884475253 0.0002859248065794664 -0.9304044171238822 71 78 77 
-0.01105928855998159 0.014936775239684175 -0.04072644179675555 0.27894259337402927 -2.5345693556497032e-09 -0.9603077785802691 60 62 62 
-0.010938824194817759 0.014676384406025061 -0.04025381347792767 0.09897238554908983 8.573995345125636e-05 -0.9950901765907363 61 68 69 
-0.01098288272767492 0.015263560273659577 -0.041123509431454264 0.822377390851516 0.00033091752453635344 -0.5689422795941999 49 55 56 
-0.01167161673144032 0.013772853185378992 -0.04068585654283374 0.44524758343063514 -1.3093268122277692e-06 -0.8954074991016466 65 71 73 
-0.01097088218548295 0.014758072704058683 -0.040165517442807275 0.04786777810592898 0.00029220013720014144 -0.9988536381463909 61 68 69 
-0.011049339713456702 0.015589570373211042 -0.04131915286679133 0.08185818818124613 0.00046299661516274217 -0.9966438795587008 48 52 54 
-0.01065040530929709 0.014765910040291902 -0.040099434859308114 0.015725294761708072 8.189924645261184e-05 -0.999876346553498 68 75 76 
-0.01111579961003642 0.016147665466962058 -0.04214768078762665 0.2793853702994901 0.007048191720758874 -0.9601531845784215 38 42 44 
-0.010901496438407404 0.015504527306677174 -0.041578691153994596 0.7326201696546789 0.00896483775189554 -0.6805786645930297 47 54 55 
-0.02528305575808923 0.007363400070923842 -0.011974045894440843 0.11523022850866095 0.0038157497044236984 -0.9933314826844234 35 41 42 
-0.011993400940701143 0.013361959129395584 -0.04085867828361067 0.3955309452388745 -0.060711325304461626 -0.9164438915384936 58 64 67 
-0.011498576807624145 0.013995628810074046 -0.04055666857787932 0.42263460470773523 -0.1282674327274551 -0.8971774944820251 67 71 73 
-0.011604747325074466 0.013649786510267214 -0.040504050273140635 0.4268989332339039 -0.12838849995882365 -0.8951389243475439 73 78 77 
-0.011929034065838645 0.013338383582123858 -0.040847970868447936 0.5873427693554921 -0.08754081988111855 -0.804590004996559 70 74 76 
-0.011742573257441075 0.013612438060373183 -0.04039294009276584 0.42078008949048507 -0.12777982144725997 -0.8981182736807474 73 78 77 
-0.019826850463399853 0.011074083689434022 -0.023844896391373216 0.11993677409289215 0.1097009403402958 -0.9867020188023563 35 41 42 
-0.02045996052915186 0.010964665296150672 -0.02302346402631794 0.05525521587650427 0.043364217346739696 -0.9975301528136108 35 41 42 
-0.024376009912302626 0.008270439379232886 -0.01507803236099381 -0.08890607098161953 0.014737097811987024 -0.9959309858070945 33 41 44 
-0.01706225430612826 0.012704093898324526 -0.02966866496138376 -0.16717330546195464 -0.12299138113139807 -0.9782260506183196 35 41 42 
-0.02558534724946307 0.007428881271280635 -0.01161633621232705 0.17301232425702756 0.534246151183277 -0.8274344600033506 34 40 41 
-0.011414787886082772 0.015212109897178722 -0.04044706631733985 0.37370089732178263 0.6495278851460538 -0.662164002161541 47 54 55 
-0.02451736507982019 0.00837164660280637 -0.014868846179561523 0.06664477967850725 -0.006797576681571641 -0.9977536100124426 34 42 45 
-0.028143310343292177 0.005534139787684106 -0.005507435954310025 -0.04009377759396165 0.09532019124339142 -0.9946389043967511 35 41 42 
-0.028592888648274667 0.006151253597849543 -0.00476427404430757 -0.0403950957716531 0.09421883220921708 -0.9947316461713331 38 42 44 
-0.013035914741434257 0.014859427839896522 -0.04214396731652226 -0.3010794653248532 0.7757877064988821 -0.5545309639730723 38 41 45 
-0.05118774805573087 0.006677488219004352 -0.046923610066110344 0.569128083150914 0.5882955776485114 -0.5744576035602372 132 142 151 
-0.051377590474175144 0.006337304491054269 -0.04737061151654898 0.40537061842427285 0.7260660349369076 -0.5554302608152709 131 140 150 
-0.0516396843620863 0.007017066641718611 -0.04693362573400861 0.5990821726932414 0.03961864934590451 -0.7997067668746786 108 125 139 
-0.051269474478869564 0.0064304924055236246 -0.04705306443787993 0.4915540241620668 0.662057190504614 -0.565733963830364 132 139 149 
-0.05178955147540429 0.006274295040877315 -0.04748287302899279 0.1880894844112788 0.7300764380890514 -0.656970882460633 131 143 155 
-0.052305147183896644 0.006177904521934424 -0.04728775076861946 -0.15660001257822298 0.35318404051668456 -0.9223543080534775 129 139 150 
-0.05168303335387267 0.005932957181934845 -0.04759870117114817 -0.3174176931842271 0.3250738546771997 -0.890827142075785 131 141 153 
-0.051643123560923404 0.005977472985919718 -0.04739387068960843 -0.27606512828155866 0.28793251137944154 -0.9169966814757916 131 141 152 
-0.052009672759232545 0.005854734901469094 -0.04733630387861765 0.4714962582393401 0.5844930069226841 -0.6603477896720641 131 141 153 
-0.05245116230022703 0.0069225046237831045 -0.047070517504434584 -0.13676706085456627 0.017584369131440344 -0.9904471520618617 27 33 42 
-0.05199113946829256 0.007412169819047132 -0.047133617396905914 -0.2925901147301179 0.026437847710549946 -0.9558724104035278 12 20 28 
-0.052851374671487455 0.006465626578831957 -0.04712091414175135 -0.3257067085972812 0.011223139886727733 -0.9454042421661798 14 21 26 
-0.05327740863997962 0.0064123926615018145 -0.047319271245350514 -0.25450192601005184 -0.0124031474986889 -0.9669927257168484 6 13 18 
-0.007440602258828949 0.037916146231453424 -0.04446512880179365 0.6258840265686483 0.009074274321063126 -0.7798633488193696 121 132 135 
-0.009165463462514706 0.036770921638527354 -0.041492232813621355 0.6494536914438165 0.01954671134066591 -0.7601498725552512 116 126 129 
-0.010013901766894345 0.037122886303188385 -0.039694082850389334 0.6386653517651039 0.01921025464774864 -0.7692447819589838 118 128 131 
-0.008972117790731732 0.0369579151324097 -0.04006394013782266 0.596041155742464 -0.0005202327633271716 -0.802953715988076 119 132 135 
-0.009798777603133108 0.03722749381851001 -0.03960378384142649 0.6233343528019113 0.009620077057301219 -0.7818962455047562 119 130 132 
-0.009141543716978867 0.03703592950732498 -0.040555146544801635 0.645478852530751 0.009779780696141221 -0.7637155274217753 121 132 135 
-0.009209024109708724 0.03651248728159748 -0.042274095154081204 0.38531505874083866 -0.0002029542883830339 -0.9227850585684083 102 113 113 
-0.009768280806622093 0.03717840380712037 -0.039353902440130706 0.634083745894712 0.0004502019073865965 -0.7732642501178837 119 130 132 
-0.010914435259458538 0.037149317072041194 -0.0393449292002338 0.6457382271620852 0.0008115149361275712 -0.7635584348463946 107 119 122 
-0.01041484726827066 0.03752682781747557 -0.039216756804618336 0.4882380943485472 0.00760222064853371 -0.8726773570272751 110 123 125 
-0.011817499546994986 0.03658938171229331 -0.04027455396815449 0.44064316388682157 9.712984305548626e-10 -0.8976823503443808 98 106 109 
-0.011480695518065825 0.03620342256008982 -0.04004928982493561 0.43998314366559466 8.251226792024235e-06 -0.8980060318405761 101 110 111 
-0.011319616099636748 0.037087599868847965 -0.04049915732979548 0.4398105179645213 -1.5979738945768417e-10 -0.8980905902456497 101 110 111 
-0.011568499762415058 0.036979412277281576 -0.04004255272962509 0.5091461853587473 9.883995612605526e-06 -0.8606800577664981 98 107 108 
-0.01065321313084569 0.03607614076130958 -0.04091284767581882 0.5871766616815267 0.004320716323319577 -0.8094472801776477 100 109 110 
-0.011290736149670383 0.03646564079919681 -0.04140768478749035 0.5870703729804577 -1.9654343294084213e-06 -0.8095359023321469 98 107 108 
-0.01034917731867488 0.03567334931615676 -0.04061563427219084 0.592431788436641 1.4672417046201966e-05 -0.8056206153236666 101 109 113 
-0.009437173494896395 0.036427934196265915 -0.04162421935261662 0.6432498665114449 -0.0003785077421685214 -0.7656562322380047 105 119 119 
-0.011335432207363577 0.035146047262270275 -0.03826658285454165 0.6080021192218288 6.84198750579112e-05 -0.7939353993496485 102 113 113 
-0.01929424679761807 0.031688723860636786 -0.02214859456752316 0.15169823959202222 0.0011514952696913443 -0.9884261824553846 100 109 110 
-0.009319799132849 0.036783865893790124 -0.041132932437872416 0.6023465987013548 -3.82688143936459e-05 -0.798234660716012 114 122 125 
-0.010034658335813046 0.0361296901816463 -0.040406565070819744 0.5980019652538885 0.004302039597789983 -0.8014830890341894 105 119 119 
-0.009035435452381696 0.03701267488124635 -0.041775082018445264 0.6092372630183707 0.004321174634095582 -0.7929762195675645 114 122 125 
-0.00887968897069255 0.03635955058800247 -0.041155162227013875 0.7001276568273875 -1.5322239125975968e-05 -0.7140176915949779 111 126 123 
-0.009151692214635104 0.03598019306445388 -0.04142867037581888 0.6501894665557155 -2.873314869894219e-06 -0.7597721089719852 107 119 119 
-0.009425361048073927 0.03610188435204384 -0.04155229184568754 0.6502011677293382 0.0005887698285879481 -0.7597618671883276 104 116 114 
-0.010852622889165192 0.03615833893175491 -0.040984147434977025 0.6455195836479429 -0.0006641364390343144 -0.7637434294642258 100 109 110 
-0.011111561936430897 0.037434293163585236 -0.04008199585933758 0.6000543356344955 0.008576865368730374 -0.7999132650898414 96 109 111 
-0.01082074183849377 0.037824219731831504 -0.039848239660144946 0.9202052292435077 0.0065730315608703 -0.391381056425836 98 109 110 
-0.01058514588196649 0.037461355482495656 -0.03967881792675254 0.7965030083962629 0.0056172877152563154 -0.6046084714047816 107 118 121 
-0.011159148538472191 0.03744636696348874 -0.04051949085890871 0.8666842209488113 0.006175131594717699 -0.4988189339912229 98 107 108 
-0.010922969961913637 0.0378281939811049 -0.04004854378423117 0.8372603734404936 0.006291878103109376 -0.5467682135386263 98 109 110 
-0.011090610500776171 0.03740002216866262 -0.03986594980822322 0.6430657726076997 0.017627072344427775 -0.7656080579650573 96 109 111 
-0.010909068918650094 0.03777720910182067 -0.03942659199685883 0.17289228382582514 0.0023694945883437 -0.984937888239094 95 105 108 
-0.010716442844206281 0.037791308638733784 -0.03917214161013405 0.7296043981493252 0.019947032326227493 -0.6835784798415887 98 106 109 
-0.011428781553334794 0.0367107986693235 -0.041406469687155556 0.0394970658720748 0.0002904519652295751 -0.9992196442350164 98 106 109 
-0.011449110455717532 0.03705628454502663 -0.04099872034109364 0.68288061481458 0.019998739682836955 -0.7302561990983435 98 107 108 
-0.011417952193374853 0.037354451292413215 -0.040223880748312735 0.634708073599805 8.818313570993192e-05 -0.7727520000174436 98 107 108 
-0.009178059439877234 0.03579575465589918 -0.039870820008754415 0.8826706304309663 -0.0008845915980632302 -0.4699912506337806 117 128 128 
-0.009949108076215268 0.0354736099729861 -0.040352182508437084 0.8825206446144128 -0.0008840301572207848 -0.47027282541099746 104 113 113 
-0.010554209825699074 0.036068066067715704 -0.04115687160726944 0.6744557011215883 -0.0007153850472778566 -0.7383149703539953 98 107 108 
-0.010830759799691864 0.03672403541294164 -0.04096687631110241 0.7149767287600383 -0.0007312760421875067 -0.6991478688853631 103 112 111 
-0.009536473645483684 0.03575545287970133 -0.03979449493804488 0.8357506993597228 -0.0008279205841383024 -0.5491084438134606 111 122 123 
-0.010046509774174123 0.035434128903003875 -0.04085286934501753 0.8576107160110378 6.533984035778787e-05 -0.5142993831551232 103 111 112 
-0.011016754058703199 0.036707163774278906 -0.04094643304114565 0.651420037228179 0.01906924746501324 -0.7584776192471047 101 110 111 
-0.01120180899205478 0.03745790437627339 -0.04064341414488215 0.6588930356833553 0.0004217456954674958 -0.7522365250760834 98 107 108 
-0.010748621230462635 0.03606123781894158 -0.0377208305309068 0.6257828686708113 0.004368091666804794 -0.7799850774555374 114 122 125 
-0.05626667325584361 -0.011121345314813652 -0.05042903836148954 -0.06626464488273112 0.46465123262707686 -0.8830108883001974 16 18 21 
-0.021253503580736854 0.0028015272155134108 -0.07861947311399065 0.00346728468637279 0.6913215364832486 -0.7225389339899574 33 36 38 
-0.05641819592484015 -0.010848600425262866 -0.05059943104506792 -0.0668715228074932 0.4368801558013565 -0.8970306175958485 24 27 29 
-0.05726921869562446 -0.011016512083064728 -0.05076916799815995 -0.05875459903716292 0.42374329182503623 -0.9038747256811999 29 38 44 
-0.030386894362279593 -0.0018636993485320053 -0.07202691982276443 0.26837417653595813 -0.14504225401548132 -0.9523329490880565 16 19 26 
-0.017817206627386117 0.0033217079529615223 -0.0815149632741089 0.3706428599974009 -0.4759176538829019 -0.7975752359843812 11 18 22 
-0.057400984785465015 -0.011547389278160874 -0.05109464864757446 0.0729079382523647 0.0006768151916714609 -0.9973384452937657 15 21 26 
-0.035709378907010536 -0.003753464812018631 -0.06789110413373395 0.22040755591457478 -0.2559962752020757 -0.9412153931903295 15 18 25 
-0.01620718875292282 0.0037278687260566823 -0.0825695250198552 0.33022255388159316 -0.413554164609615 -0.8484845418992392 13 17 22 
-0.05779120201511517 -0.011265317169357941 -0.050042840711528425 0.011084059752808368 0.04737110781980816 -0.9988158597876389 27 36 40 
-0.05779766746715981 -0.011907436571588131 -0.05006148973149194 0.002114043831370403 0.18372609357250946 -0.9829752048547636 13 20 26 
-0.05669274411629738 -0.010656828469311846 -0.050944967418019016 0.031490245084240635 -0.0013836889485118185 -0.9995031014806448 36 45 50 
-0.04071471747513128 -0.005579431753328257 -0.06352804519870758 0.34265444103133014 0.07745980448190395 -0.9362627370194394 12 19 25 
-0.02077895095916299 0.0029357628256708457 -0.07931559573833513 0.25256000474436624 0.11548749201940799 -0.9606643967539303 27 36 40 
-0.021680145245584814 0.0027955282743185594 -0.07937153307815803 0.18870027356553337 0.22563726099805856 -0.9557614938914346 26 38 44 
-0.057224882903721686 -0.010512532734599817 -0.0509559183045355 0.2638329989047378 0.13611963638567076 -0.9549154901242127 47 55 61 
-0.02136442688797552 0.0021642458962739253 -0.07902087545396608 0.15826644304517826 0.07561999345985486 -0.9844964954711413 14 19 27 
-0.05643637496142412 -0.010909130706319603 -0.05082703008924594 0.10980978311971819 0.14753653778760012 -0.9829419014106828 20 24 29 
-0.0572583857337538 -0.010690634497204532 -0.05056401151667439 0.1555472404903891 0.09755720480648582 -0.9829993121900801 46 54 59 
-0.0563586108359076 -0.010812700891037391 -0.050827375273166 -0.015228196294892643 0.07384353980668304 -0.997153565739211 24 27 29 
-0.022228186168879338 0.0018645954272759613 -0.07753662583295529 0.2884087254025823 0.6654753045324708 -0.6884497266824013 14 15 18 
-0.02079342865143774 0.0029525115866929352 -0.07899928095327818 0.13717451027098332 0.24576115289980865 -0.9595752234490388 26 32 36 
-0.056861643740153955 -0.011306398372475684 -0.050910841311610555 0.22442230067109298 0.29993743848655097 -0.927185075352068 15 22 28 
-0.0565279707633663 -0.010115589075332193 -0.0510797401635697 -0.06747777819920896 0.32877423851050663 -0.9419948245829883 55 62 66 
-0.027022223553041735 0.0005592843389806978 -0.07644535127594254 0.40287609171809374 0.032615080157545905 -0.9146732264958185 17 18 24 
-0.03884680216491482 -0.004459081986572966 -0.06665236538618347 0.3433492374851012 -0.00011803617660015481 -0.9392077976602732 11 13 18 
-0.05665095781800239 -0.011213105801762047 -0.05287129164047949 0.18168406112817778 -0.09317845286808615 -0.9789324174084145 11 13 18 
-0.05636714112451241 -0.010940530571797613 -0.0527081661659215 0.051877531524016626 0.35450164235371595 -0.9336151815879457 12 16 21 
-0.05377633552235622 -0.010698101842020774 -0.05439018826479064 0.21928604709128388 0.16055821746151927 -0.9623589186767371 15 15 23 
-0.057788672147134734 -0.010969440699590133 -0.05105862418789364 0.15552508309669208 0.8110181688188777 -0.5639693948907525 27 39 49 
-0.05807561065116834 -0.011892774492379632 -0.050421304577375425 0.2548257558197703 0.7791373929291928 -0.5727204877690194 14 21 26 
-0.059642738007782026 -0.01270299893488594 -0.04963511484748334 0.09594840314837695 0.06606503987086092 -0.9931914792426172 15 19 25 
-0.057917111293444734 -0.011306382604823528 -0.050770854123306064 0.06884802595868904 0.22469050768417012 -0.9719949202944538 20 29 36 
-0.058112383544469515 -0.01185559565410954 -0.05049048238078363 0.24375350302472273 0.7875149416166908 -0.5660427956379591 14 21 26 
-0.0592309290690774 -0.0117750813299341 -0.04990661011337527 -0.4253131193909062 0.46842435895653206 -0.7743948414149844 16 25 33 
-0.04045598882809748 -0.004745256575240969 -0.06511851215866671 0.24453944920642992 -0.00013747644287420273 -0.9696393344342233 13 19 25 
-0.042028624200400044 -0.0051250664869059714 -0.06472564543071346 0.19739972610397957 0.005810026756581404 -0.9803058664127037 17 18 24 
-0.037502781649619676 -0.003900140939756158 -0.06784688358214608 0.3378111727067656 0.018404308422057713 -0.9410339489231967 11 13 18 
-0.04298326006030723 -0.00519979090210676 -0.0635667709555322 0.10094636735762876 0.011891517421308754 -0.9948207993054414 15 19 26 
-0.053892063192374995 -0.01074327098635472 -0.05463851379559981 0.10584334345366135 0.07524426943536648 -0.9915318888284371 15 15 23 
-0.0525202339712913 -0.01010201389669696 -0.05523786855632801 0.0839088770193282 0.13231436317028267 -0.9876498416221196 16 17 25 
-0.0584578697682559 -0.012068879935433846 -0.051235250954170974 -0.05299950673298909 0.09070620734718149 -0.9944664077960351 12 15 20 
-0.05127128266634984 -0.009152243875035826 -0.057079529296578835 0.13327016689144489 0.00019952365979084122 -0.9910797257572347 11 13 18 
-0.04024401039925041 -0.004082046052514887 -0.06569792429931204 0.021659867386082318 -0.0007177686925263458 -0.9997651398968267 15 19 26 
-0.05928976395604607 -0.011671997012407231 -0.050562437618037914 0.03465182208642758 0.14751697170897796 -0.9884523227166312 13 19 27 
-0.014907913966766717 0.00462138277201346 -0.08392890900707994 0.16526453062717605 -0.031183742373633066 -0.9857561610906391 13 20 26 
-0.01442137498429652 0.005019506817123931 -0.08510739156324676 0.3777110030399593 0.00037089996126350114 -0.9259234636922031 15 24 29 
-0.01079901011310147 0.006055660735703433 -0.08741593869768971 0.38511411305905435 -0.004318817396729978 -0.9228588558057139 13 19 26 
-0.017305037694022363 0.003921938078902787 -0.08315561516469372 0.27283305105967864 -0.18879404486598161 -0.9433551477956796 13 18 24 
-0.05414588659948366 -0.010160299607715334 -0.05411878415174809 0.054071072674175574 0.27766907107414557 -0.9591539011382298 13 21 27 
-0.05552281388617891 -0.010381289885816936 -0.05367198969213388 0.07957869279885088 0.6444575268064169 -0.7604878222529159 14 15 23 
-0.039324950765836364 -0.00467658410431121 -0.06619121772198133 0.13211065030183 0.0846805090531935 -0.9876112532081232 12 15 20 
-0.05929737813647068 -0.011612738779719245 -0.050281077638326455 0.04373851319870762 0.22249845360143547 -0.9739514262057098 15 25 33 
-0.0285472418845778 -0.0004821815863590151 -0.07467062702500216 0.37078661568715787 0.022176610149671944 -0.9284532748553012 12 15 20 
-0.054651776391418105 -0.009729869128174362 -0.0540251339201398 0.037548468589790926 0.34714850833433486 -0.9370581762451079 13 19 27 
-0.05643248582063648 -0.010605002448506456 -0.052615854562003905 -0.08673301897083414 0.7657361328687954 -0.6372798115736504 13 19 27 
-0.056644484329331835 -0.01075271783216794 -0.052226826519796876 -0.01790942817873634 0.6637714713442323 -0.7477209948983803 14 21 29 
-0.05919148870440122 -0.012376901242320965 -0.05021811006726001 0.02725786716220536 0.03120128749682633 -0.999141375550181 14 17 23 
-0.05880157289618054 -0.013141667756502579 -0.04990082957598746 0.35997665543405355 -0.42894106052871295 -0.8285085238758958 15 17 25 
-0.024884911301035928 0.0004750325779232234 -0.07576758225271873 0.2743922718467837 -0.6779690051598732 -0.6819581432854164 11 18 22 
-0.0011453652493225719 0.009325551222612999 -0.09477034687426594 0.29271094182163115 -0.2704396360662203 -0.917160132028352 14 19 24 
-0.019690717235798738 0.002354651876303987 -0.07959773859078506 0.3008900074453664 -0.43366379055452625 -0.8493532363989716 13 15 20 
-0.01923641241305374 0.0029945270601479668 -0.08115445698026136 0.37627204362831107 -0.47439766623194163 -0.7958430771562078 15 21 26 
-0.021802993273386917 0.0012745801993717387 -0.07812797894530893 0.07449223160951701 -0.09230766898395716 -0.9929401803112725 13 17 21 
-0.019598567847416593 0.0031196774413806694 -0.08067116044925648 0.4649748067483349 -0.45016654252702176 -0.7623309734482889 17 25 31 
-0.019600518093618846 0.0027745181636231464 -0.07990265924457102 0.4163574610137898 -0.5021925263630896 -0.7579242251856106 12 19 22 
-0.021195937525263997 0.0027250594805202644 -0.07930066432510396 0.09216459532056534 -0.047091649055015596 -0.9946296114427097 29 38 44 
-0.059984197537188255 -0.012414218409652622 -0.050171815154843036 0.353796489655024 -0.47910949879932596 -0.8032945487603169 11 13 18 
-0.04635314618937425 -0.007930128828045196 -0.059842738172167176 0.37282196838952564 -0.5563321971196722 -0.7426292926717595 15 18 26 
-0.03894193775404442 -0.005109585446781306 -0.06496664107594641 0.29695694472777195 -0.528598074195963 -0.79523622209647 14 19 25 
-0.023974852082542686 0.0008716662211719628 -0.07756426722660181 0.2594533198843559 -0.5260825197194143 -0.8098895957145382 15 18 25 
-0.017289760300197854 0.0029262239362201348 -0.08227771682154639 0.29489593797689684 -0.5632565289320957 -0.7718668721872273 16 20 26 
-0.05172381467997572 -0.009728656564841731 -0.05588931094113764 0.2708610149630805 -0.6745805744500092 -0.686713447624164 16 17 25 
-0.024689868448653396 -8.074822510306667e-06 -0.07633438073217819 0.3282814424696645 -0.6338114977164184 -0.7003672464446826 16 20 26 
-0.0244388004740545 0.0010606837783376788 -0.07724068611858831 0.3216656968406321 -0.5754973100736258 -0.7518869765955862 15 21 26 
-0.023703270645985985 0.0011178216269756847 -0.07804100903549144 0.26578822365248633 -0.6491670783812347 -0.7126982001616307 15 19 25 
-0.05903135658375297 -0.012905169301842101 -0.04860163165476622 0.19494659094434244 -0.5005938303110651 -0.8434462897740886 13 15 20 
-0.05913686737087359 -0.013214788282723322 -0.04875568756041915 0.006315371130118607 -0.005270069704703429 -0.9999661706541859 14 18 22 
-0.05971228037865123 -0.013213458200876577 -0.047915021759196263 0.2689455633563608 -0.8006586524682421 -0.5353634337332616 15 16 21 
-0.037746647235488096 -0.0038581908436969015 -0.0674916463972769 0.29179587601869433 -0.6723327030820365 -0.680311622056308 12 15 20 
-0.0391159364752261 -0.004925169253940154 -0.06583563884097449 0.16958393631333954 -0.5635827546144734 -0.8084650686613711 16 17 25 
-0.060056770238629154 -0.012104314367785723 -0.049624238642023755 0.5168378603881423 -0.4682873907015281 -0.7166488301667433 14 21 29 
-0.060926909365072 -0.013054696972389118 -0.04803102988393382 0.37910742036575434 -0.5357158654219775 -0.7545104872424272 14 21 26 
-0.061440512824765314 -0.012776489348935466 -0.04884245525134323 0.1619371978168667 -0.33500416891103796 -0.9281963966615285 12 16 21 
-0.058578551429256887 -0.01240288954566296 -0.05017713056615575 0.3210549207580865 -0.4468056191591901 -0.8350380090419786 14 21 25 
-0.06106360576558362 -0.012379524911375367 -0.04884388715133059 0.023997080357930006 -0.6477990884302994 -0.7614331757699871 15 25 33 
-0.05877469466086843 -0.012384617072870613 -0.0499717236275517 0.2588913744893103 -0.5846959584939134 -0.7688341123648974 14 21 25 
-0.023503967603593412 0.0014527827531204685 -0.07865142196420938 0.27658618184862316 -0.43986347239539003 -0.8544122012604164 12 15 20 
-0.061270237211437484 -0.013652573537139862 -0.04831159295553861 0.25533400213029406 -0.4810777640750841 -0.8386708128155198 18 19 25 
-0.05363498708497366 -0.010649765745777307 -0.053532925359480565 0.345690257349033 -0.5727736032866878 -0.743255437485622 15 18 26 
-0.05367073459466837 -0.01042123660511482 -0.05442975226307123 0.6496848294005322 -0.7572945228849953 -0.06644266742981238 15 19 25 
-0.06416716843129372 -0.015039667627937514 -0.04551369308314579 0.33111144633427975 -0.372006001010915 -0.8671659272124848 16 19 26 
-0.06405020919113985 -0.01408407906505485 -0.04597106837290682 0.43346248509683366 -0.5440414205529989 -0.7184213295388384 15 21 26 
-0.02507686391207664 -0.00016983216003566004 -0.07543108097945056 0.39814311060244445 -0.5569129878494118 -0.7289238557246227 14 17 21 
-0.06508384201185807 -0.01591155930405025 -0.044015265485853605 0.026306357659294118 -0.037824750379386776 -0.9989380680529891 13 18 21 
-0.06393717266630611 -0.014413779325355341 -0.04578391206304544 0.3278103531775244 -0.6578280970817657 -0.6780874331820415 14 20 25 
-0.06348606955918507 -0.01463699042863617 -0.04554901493673302 0.4345686191072727 -0.5530368091864316 -0.7108448515478527 14 19 24 
-0.061272982340824844 -0.013496595053114013 -0.04825931193182614 0.2548642967797013 -0.7493169208195473 -0.6112023743413474 16 17 25 
-0.023573979123377886 0.0016888159424710836 -0.07757270187093035 0.44922132217178756 -0.5009448357052869 -0.7397665005165036 22 31 38 
-0.056625528892572385 -0.011635213949449358 -0.05054598566165991 0.30473495125154515 -0.550182146195506 -0.7774549604275641 12 16 18 
-0.05855853701399644 -0.012705940837759083 -0.049326908880942044 0.34139031977490625 -0.5618782213065356 -0.7534888944008339 13 17 22 
-0.023945735440242755 0.0014186065734209663 -0.077091923174811 0.4343799125669984 -0.45842382569627466 -0.7753461727462633 16 23 30 
-0.0036692075752682296 0.00884077774934483 -0.09264501829655059 0.35296011783038067 -0.45116973065790017 -0.8196737334813416 12 19 22 
-0.056849558470922934 -0.009927613395279505 -0.05147679151107909 -0.07174428654927843 0.7881651979857517 -0.611267844755158 60 70 77 
-0.05783066086659833 -0.010865282890824224 -0.0516039482763031 0.07227520907413586 0.10501593104219913 -0.9918406869959662 15 23 32 
-0.058158690329498886 -0.01120476206852225 -0.050316607363695254 0.08077431112127353 0.1585897825932209 -0.9840349544197698 39 49 55 
-0.057108539037679484 -0.010005375838213482 -0.051256885667948004 0.04609135688028041 0.1494664522911767 -0.9876919390480131 60 70 77 
-0.057689361406127515 -0.010298009990564017 -0.05064375841516372 0.18248171681746897 0.9138271664957126 -0.36279516645314613 62 70 75 
-0.05618929963332381 -0.010260492345626426 -0.052783252268254366 -0.03399358144308971 0.7285381327728644 -0.6841612569537245 20 30 40 
-0.05742448745926704 -0.010269712797911473 -0.051557106921604756 0.0724305480623448 0.23641724393711527 -0.9689482455098244 40 55 66 
-0.05883125046192211 -0.01058798466633945 -0.050036577809787874 0.035573098451681356 0.17942317839929084 -0.9831286170789879 56 69 76 
-0.05881725483714256 -0.010803948763238203 -0.05035746678194519 0.03949248956719637 0.13163393543955432 -0.9905114084696249 40 55 66 
-0.05802250232604861 -0.010216737134016524 -0.050578367557006565 0.2610566609479844 0.8481632761263087 -0.46094302989130453 68 75 83 
-0.02147240621221691 0.0020465182684472893 -0.07925282161044594 0.20000486281913937 -0.05634630980281518 -0.9781733732934579 14 20 25 
-0.055062691834086686 -0.011348107667905338 -0.051934260052171 0.2230709520784386 -0.054963986430607834 -0.9732514117813932 13 17 22 
-0.017300952116406032 0.002983631976129858 -0.08207366844813507 0.3857338958047617 -0.10687219333873817 -0.9163993102999634 14 19 24 
-0.041202499866963005 -0.005806353622351879 -0.06297125962962036 0.08021474127712529 -0.011682329866928446 -0.9967091443599402 11 18 22 
-0.01733761894550434 0.0031079046314855807 -0.0821275913030729 0.3324997484701041 -0.11116557200870718 -0.9365287677734702 16 19 26 
-0.05617089778783774 -0.0115107047465757 -0.050483027400569536 0.11188145166070526 0.059453742089253324 -0.9919414263583701 13 14 18 
-0.021273545336545574 0.002918113775082193 -0.07953255851347335 0.17210386557051038 0.009376089374682402 -0.9850341864137131 29 40 46 
-0.058328893484968336 -0.011146678632745044 -0.04990678954776495 0.05537147683750621 -0.003103307480751285 -0.9984610002576533 38 47 53 
-0.05653802615598896 -0.010329222459000809 -0.05136393857228827 0.20067657949259274 -0.00783571001279702 -0.9796262103944282 47 55 61 
-0.059452776151845466 -0.011645035293873202 -0.04956268066858255 0.11626513630279912 0.07085832538580356 -0.9906873956016656 34 47 54 
-0.05859523732575084 -0.011191260834722716 -0.050103867681706715 0.2441070521133168 0.5142864933153559 -0.8221442391101094 39 49 55 
-0.057501328448238465 -0.011737214537903329 -0.05045917856915405 0.23926696636770312 0.3054891202326213 -0.9216440290180887 13 20 26 
-0.05826874404217236 -0.01220508952345667 -0.05132897108597695 0.07400190466684818 0.04450950900378593 -0.9962643332539415 14 14 22 
-0.05089632209402667 -0.009964420419136616 -0.05644782259869341 0.17619474273749738 -0.08775055558433617 -0.9804362562789625 17 18 25 
-0.05824665949603297 -0.012638581149922501 -0.05061672297879005 0.02127335167828307 0.02657992368242696 -0.9994203080613323 18 19 25 
-0.016203372184390885 0.003649597893865514 -0.08246622702629075 0.14063276004588876 -0.1655705147869376 -0.9761192711114067 13 15 20 
-0.02629792568574002 -0.000373625314507825 -0.0755841114740623 0.21765046772571076 -0.1922856964714377 -0.9568983670334449 15 18 26 
-0.06902595945013962 -0.01740946720351272 -0.041443982024010395 0.30641972824812125 0.22665496668897253 -0.9245185104775179 16 18 25 
-0.03569838198501124 -0.0036951738748303153 -0.06785693658979958 0.28875131359881395 -0.2427168315160836 -0.9261269991711464 15 18 26 
-0.02633625998440242 -6.681081377918341e-05 -0.07557066537878249 0.2208282429892014 -0.19756783073147186 -0.9550925815638831 15 18 25 
-0.059586479691440764 -0.012616914034814797 -0.049063233176983856 0.47513905442185184 -0.4465204447762472 -0.7581967893363377 14 19 27 
-0.028642605039534252 -0.0010875096419933061 -0.07396268004508327 0.24409421227100983 -0.14727688696908697 -0.95850275643865 18 19 25 
-0.06235008071766851 -0.014637748238735648 -0.04695109906578071 0.34741469262393476 -0.26386227652361266 -0.8998220548401742 16 19 25 
-0.05937295871235865 -0.013324345738319088 -0.04828854329720639 0.2666906910184379 -0.767807573700947 -0.5825354968511129 13 16 20 
-0.025020830253920767 -0.00010675233582216337 -0.07553538749182864 0.26757888404161756 -0.773618258734652 -0.5743834351436397 14 17 21 
-0.021310019957617388 0.0021606463019605004 -0.07939366732871161 0.027694304630745094 1.1564887319485079e-05 -0.9996164391191618 14 21 26 
-0.04320014125451532 -0.007008230107512586 -0.061813246368171204 0.24725621183812865 -0.0218459763578366 -0.9687038345255123 16 20 26 
-0.038924900230556614 -0.005653235533509715 -0.06556192728721127 0.09094367556877578 -0.014050529871730798 -0.9957569133500228 15 17 25 
-0.0390478948375898 -0.004897131240966357 -0.06549789924657029 0.12800966688765317 -0.02663407917084855 -0.9914152263355819 15 18 25 
-0.02733066073716356 -0.0008883675055366969 -0.07415618418829706 0.3333419847374051 0.034180587791231225 -0.9421861857560709 14 19 24 
-0.03886055328980581 -0.005268958646763189 -0.06533212509365027 0.32699276458075993 -0.030217865068053705 -0.9445436001278927 16 19 26 
-0.03885633078480294 -0.005028637976463607 -0.06609730744756737 0.23647758312097894 -0.020759185821189158 -0.9714151578420536 18 19 25 
-0.05836649960236756 -0.011432445948734687 -0.050784431275986475 -0.21819377395281336 0.975784455824989 -0.015367913929964805 16 25 33 
-0.04065257342455597 -0.0049237670499504005 -0.06469703627495199 0.25639979255179124 0.134859737994841 -0.9571165015019651 13 21 27 
-0.06071770273900606 -0.01294445556566498 -0.04924742702969359 0.07858880021950107 0.0381260563275855 -0.9961777975386548 12 15 20 
-0.040228690808762846 -0.004265700463704475 -0.06538231039645148 0.15515698639491768 0.00256773895818693 -0.9878864895773654 13 19 27 
-0.058644852992554675 -0.012785103205801146 -0.050405629831639265 0.19847057351246156 -0.06427721523768919 -0.9779968665854315 18 19 25 
-0.05687206117028204 -0.011316501309227317 -0.05176419379517022 0.1073158636678587 0.08343746750727374 -0.9907176663516172 14 20 26 
-0.05856040490148423 -0.01267047376933883 -0.05076032149900278 0.13526215996386567 -0.07709091587772847 -0.9878062253149869 17 17 24 
-0.03896799335329376 -0.005216578708491598 -0.06519390230086669 0.3097043513542492 -0.33894236020077656 -0.8883700193127697 16 19 26 
-0.05592002055001294 -0.011438787020454755 -0.0511679380256399 -0.24399711416055186 0.4562170258027619 -0.8557636552512643 12 16 18 
-0.05593294949312794 -0.011590186522979884 -0.05181502568878055 0.3362975633846746 0.4961914634561614 -0.8004361189094128 15 18 26 
-0.05587276645295053 -0.010895291311963817 -0.0514290955003428 0.321260000813657 0.46263006253507694 -0.8262962163268085 13 20 24 
-0.055707365705703615 -0.01135177051202435 -0.0514153944618162 0.2369536963947874 0.641481732066451 -0.729626022829417 11 18 22 
-0.05692970554354554 -0.011461891464097401 -0.052154884805770574 0.07373838068553394 0.1266899461335342 -0.9891978107348184 14 17 23 
-0.051132969513328796 -0.009781604052185866 -0.056393327869464605 0.10632608263479916 0.22049410875503128 -0.9695757382256748 18 19 25 
-0.0401738589848486 -0.005638391860195963 -0.06481955560271202 0.33446692397863237 -0.3901932347995346 -0.8578351335081509 15 18 26 
-0.04379086556553091 -0.007566134976073419 -0.06146399169354033 0.328609763233087 -0.35002402208892325 -0.8772108113039804 16 20 26 
-0.030275178844502093 -0.001835817464444972 -0.07186317769942868 0.31828796318740454 -0.3263642627835308 -0.8900444598264605 14 19 24 
-0.03876848708275393 -0.004723074912854036 -0.0660829200202297 0.24995777825684248 -0.35532027581673903 -0.9007045079727422 15 19 25 
-0.040104070445222684 -0.0058762552633966625 -0.06438483208964124 0.4086968222791008 -0.418321460646085 -0.8111560041212116 16 20 26 
-0.0393794123998486 -0.004709161024404163 -0.06532534171769133 0.4249793972585365 -0.4884173154051279 -0.7621292790060088 15 21 26 
-0.05867654815143092 -0.012839384931825626 -0.04974852023999837 0.29573074276158506 -0.3869022781833048 -0.8734128204476105 16 19 26 
-0.04632132004500533 -0.007820102103745286 -0.06031034198781299 0.4005484842194087 -0.40525054033858166 -0.821786414675262 17 17 24 
-0.05691555173890189 -0.011509182806887758 -0.05176735660498527 0.0014105556105207093 0.004246994359485448 -0.9999899866357563 15 19 25 
-0.05379982577273129 -0.011022386996791589 -0.05297667207109302 0.2598948974630379 0.021863179391525097 -0.9653893741178069 13 17 21 
-0.007365519748829319 -0.0072884763028150945 -0.039233770827585335 -0.0015191099287127118 0.8114851094322542 -0.5843711230671369 113 117 124 
-0.051656908480732455 -0.025068129972990127 0.0003475349616447465 0.6484328376423035 -0.2794466215736633 -0.7081274184482732 115 119 127 
-0.007827959789981687 -0.006900213746521222 -0.03893770049503775 0.17697295961911697 0.7719336868495962 -0.6105726448756444 115 119 127 
-0.007091484992787389 -0.007584829577591101 -0.03944989964872048 -0.011769571783275921 0.8536641964488759 -0.5206908073716429 105 110 114 
-0.007303657160695809 -0.008000346285706478 -0.03974594430919276 0.0008444905219980112 0.6356514504999968 -0.771975725209678 129 135 138 
-0.006873602065568529 -0.00756857195140323 -0.04168119105322521 -0.21180795537908295 0.3696352034900562 -0.9047138809474502 146 151 155 
-0.0074274902788538655 -0.00783106256811375 -0.04160312464815025 -0.05266143986119594 0.6400564158070745 -0.7665210742934254 148 153 157 
-0.006664686199269576 -0.00797483586582523 -0.04132279314628923 0.01424782543546215 0.6269632853085092 -0.7789185055867665 142 147 151 
-0.007075372426084026 -0.008196165638735542 -0.0413525066279023 0.009272085754639857 0.6363201125949245 -0.7713693944751381 143 149 152 
-0.007493742585980012 -0.008154161314627845 -0.04161109294554799 0.012256868791779531 0.7213765054710585 -0.6924346225614264 149 154 160 
-0.007017589580634975 -0.008206960004972591 -0.04048971843556176 0.06532472652876009 0.47499044264497026 -0.8775629661168923 149 155 156 
-0.00931471722554994 -0.006614812182899554 -0.03912750312994273 -0.8839352500641983 0.34317955575794357 -0.3176259847741111 110 117 122 
-0.009004367662696577 -0.0066943585206091505 -0.039631279006005604 0.17467651419437238 0.9320860441768952 -0.3173384969391049 107 114 120 
-0.008635796785906535 -0.0065595742983848015 -0.03869825856706488 -0.9778200035601492 0.12012288534282052 -0.17157660987018403 111 117 125 
-0.00963294815574961 -0.006952917651724955 -0.03991766780799355 0.17972805518699186 0.9010243095332948 -0.3947822435327492 98 105 111 
-0.009790384879580005 -0.006796681252929371 -0.039026017541646196 -0.19866922320018762 0.54880816763478 -0.8119976200029094 108 115 123 
-0.007630182959066534 -0.006577079086011128 -0.03905675359870442 0.05105334978201254 0.3781127633464739 -0.924350741694152 115 120 126 
-0.013735543817353701 -0.008844599363497851 -0.03373710589491463 0.6305154105455071 -0.44225327179129936 -0.6378576335315911 114 119 125 
-0.007720983429259698 -0.006384594495332352 -0.039360905189932405 0.8407098159832682 -0.009883508342397937 -0.5413957162484987 111 118 124 
-0.009622866800454655 -0.007242539226810951 -0.040676738906332 0.24914574331981115 0.9195232818452419 -0.3039791649606511 102 104 111 
-0.009634000120136932 -0.006908931648308858 -0.040363657599770286 0.2203665087835897 0.8800441465775176 -0.42066721037083543 98 105 111 
-0.009087119898595453 -0.007399206178824391 -0.041051539490031874 0.3698873750295533 0.8500264240531593 -0.3750178771807356 113 115 119 
-0.009109180226827551 -0.0074296135172244315 -0.041288665978547134 0.19191681465545202 0.8552706361538341 -0.4813315647093185 113 115 117 
-0.0085176209649247 -0.007789597927140818 -0.04166291662053434 0.191356313054278 0.8527142947069974 -0.48606696355195866 151 154 158 
-0.008867565036032976 -0.006101697713782217 -0.03904120787999277 0.006882441035281657 -0.0008038773311730167 -0.9999759926051387 113 121 124 
-0.041828955710495996 -0.021310616042910874 -0.007675526365938046 0.2504800356367371 -0.027481611019392876 -0.9677316326354108 113 117 124 
-0.04091209554824099 -0.020517733867376597 -0.010140099357868193 0.6000284576061815 -0.06928125046327444 -0.7969729972822114 110 115 121 
-0.041568504855927724 -0.0214064189703822 -0.008819847648377233 0.549729460610175 -0.06321542509032438 -0.8329473753892833 112 116 120 
-0.041477377875546784 -0.020476591043148612 -0.009019931237949974 0.5853409385606573 -0.1384770901013306 -0.7988742586677812 111 118 124 
-0.03960603593220979 -0.020392073442026065 -0.00906025272238109 0.10280360820948176 -0.01130871038305311 -0.9946373867940937 104 111 117 
